# .PCD v0.7 - Point Cloud Data file format
VERSION 0.7
FIELDS x y z intensity
SIZE 4 4 4 4
TYPE F F F F
COUNT 1 1 1 1
WIDTH 1365
HEIGHT 1
VIEWPOINT 0 0 0 1 0 0 0
POINTS 1365
DATA ascii
1.6914556 9.5111198 0.5699324 9
1.7067068 9.7648973 0.53190255 9
1.6842139 10.127878 0.57549834 9
1.6905005 21.530127 0.47505188 8
1.78983 27.703415 0.55897439 10.125
1.7799689 28.109114 0.55072892 10.6
1.7144365 29.004055 0.4729889 11
1.6784545 29.361954 0.56340063 10.940476
1.676414 29.688068 0.5145756 11.159722
1.7090712 29.897293 0.48981321 10.5
1.6367184 30.165764 0.53013861 11.583334
1.6377969 38.52459 0.53762352 10
1.6094289 39.588581 0.56603277 10
1.7589812 41.376671 0.52560818 9.25
1.6717125 41.728165 0.57353795 10.35
1.6757731 0.42477891 0.64908683 10
1.7556162 0.74326575 0.64422268 10
1.7766237 26.836903 0.65391004 10
1.7206182 27.571806 0.62009728 10
1.7812334 28.090885 0.74143195 10.5
1.7352282 28.516174 0.61217082 10.625
1.7052083 28.930725 0.66170466 11.5625
1.6141069 29.596779 0.68005151 13
1.6519319 30.090851 0.6980989 12.75
1.6376152 30.281668 0.64152813 11.5
1.6776273 38.126472 0.60312819 10.083334
1.775456 39.689945 0.77175468 10.666667
1.6987134 -9.2339497 0.92720163 10
1.6586347 0.3403441 0.87791002 11
1.7996058 0.54412329 0.86202472 11
1.6641417 3.3499651 0.95133948 15
1.7338607 3.4414856 0.96322989 14.5
1.7891798 4.912261 0.88979512 11.75
1.7680922 5.3912687 0.80933237 10
1.6907339 21.556446 0.91053855 8
1.6504278 27.014111 0.85434777 9
1.7606859 27.399076 0.9854477 12.162963
1.7635049 27.712902 0.92191589 11.208333
1.6912587 27.973255 0.96191901 13
1.7254152 28.122318 0.89093727 10.889286
1.7018079 28.876358 0.97315496 13.375
1.6589797 29.313087 0.95717585 13.127777
1.6609778 29.557713 0.89396346 14.5
1.6403358 29.713741 0.94349146 12.86875
1.7239392 38.204517 0.97809768 12
1.7724276 39.128246 0.99489129 10
1.7905715 41.714622 0.93315184 11.125
1.6358848 -9.2568331 1.056528 10
1.6663227 0.48312521 1.078434 11.875
1.6796484 0.74621165 1.1069291 12
1.6665368 3.4850781 1.011243 15
1.6345663 3.7928908 1.0138038 9
1.7710581 4.1622009 1.040255 13.5
1.7864666 4.5896873 1.0342205 13
1.775876 26.82637 1.0394489 11
1.7484403 27.194323 1.199845 9
1.7471247 27.587795 1.1778753 9
1.6838758 27.686005 1.0122977 13
1.7602321 28.010292 1.1481115 14
1.7119188 28.565363 1.0604414 13.033333
1.6640718 28.955938 1.1453418 12.5
1.681527 29.579477 1.1814952 12
1.6607745 29.640064 1.1050788 10.5
1.7204995 29.929384 1.1748624 10
1.655472 30.126369 1.1454847 11
1.7626271 39.067413 1.0103381 12
1.794825 41.357056 1.1392779 10.5
1.616313 41.790161 1.0368441 13
1.707617 42.981003 1.0416915 11.5
1.7283986 0.69952732 1.328753 13
1.7506711 27.068501 1.3519503 11.795782
1.7688006 27.378277 1.3791679 13.888888
1.7676573 27.727287 1.3345063 13.333333
1.7257478 28.073137 1.2965772 13.234375
1.6914172 28.506184 1.2523632 12.916667
1.7788253 28.65663 1.2647367 10
1.69113 29.365198 1.3704582 13.222222
1.6275511 29.747829 1.3904934 12.75
1.6653023 41.736385 1.2560229 12
1.6657882 42.981308 1.2262263 11
1.6704984 -9.2631454 1.493777 11.196777
1.7734613 28.431591 1.5953226 13
1.6736629 28.932978 1.5104988 12.083334
1.6117663 29.665833 1.5173118 11
1.7901852 -9.2755556 1.6907737 9.9191742
1.7868773 26.519726 1.7550116 13.9375
1.7965443 26.957069 1.7429882 14.375
1.7140431 27.091528 1.7776555 11
1.6877146 27.709192 1.7136195 11
1.7537642 28.080988 1.7539594 12.9375
1.7336006 28.352667 1.6548558 13
1.7143773 28.514832 1.6746782 14.208333
1.7523994 29.586739 1.6629031 11
1.7455077 29.996948 1.6977125 11
1.6535897 30.114651 1.6843156 11.1875
1.7486203 -9.2674847 1.9800947 14
1.7584214 -7.4587002 1.8235147 10.5
1.6120367 -7.238554 1.818673 14
1.7803941 -7.057754 1.8028505 14.625
1.6902781 -6.8984604 1.9155879 14
1.7235503 -6.7063713 1.8804994 14.75
1.6197882 -5.9574947 1.9416455 12
1.7330716 27.748268 1.846428 13.604167
1.7216153 28.475727 1.9065129 12.5
1.6992294 28.979742 1.9037253 12.859375
1.6915148 29.371458 1.8413789 11.375
1.675226 29.721189 1.8027191 11.375
1.7095726 31.885292 1.9478022 13.416667
1.7547345 38.587418 1.8613338 12.375
1.6854763 38.912556 1.8873371 15
1.7621689 39.055454 1.8290802 12
1.6800661 39.432339 1.8644238 12
1.7426569 39.631912 1.8869402 14
1.7586796 40.875439 1.9262636 12.875
1.7277966 41.043564 1.9906654 12
1.7511277 43.493561 1.8856113 10.820833
1.7006689 -9.2394848 2.1116877 11.972656
1.7619821 -6.1018705 2.0347362 14.5
1.6363559 -5.9836664 2.0460262 14
1.7499366 24.924694 2.094435 10
1.7696381 26.999052 2.1884203 13.194444
1.7473185 27.323687 2.1617813 12.75
1.7118139 28.156792 2.077991 12.875
1.7528465 28.602827 2.0951924 11.75
1.719883 -9.2387018 2.226305 13
1.7530785 -5.8658185 2.3831606 13
1.7229323 26.860754 2.2137198 14
1.7455835 27.129715 2.2400236 12
1.7745899 27.765991 2.2043309 11.75
1.6198125 31.878246 2.2405167 13
1.7291192 43.44244 2.2555616 12.666667
1.7053442 20.833206 2.5822601 14
1.6369829 24.828331 2.4507015 10
1.7461818 26.940588 2.5783079 14
1.7726061 27.379219 2.4891911 13.5
1.7047886 27.736115 2.4344594 14
1.7953777 -5.0315809 2.6069572 14
1.7364144 -4.9347448 2.6086509 14
1.7718315 -4.4854894 2.7730055 11
1.7863884 -2.3232515 2.7633128 11
1.7647882 -2.1372938 2.7421637 11
1.737673 3.0733283 2.723227 11.6875
1.7783022 11.490917 2.7386353 14.5
1.7655964 11.691813 2.7592328 14
1.7666044 18.984215 2.699913 13.333333
1.6889267 19.060429 2.7130551 15
1.6396432 19.433887 2.6969078 15
1.6133022 22.80695 2.7572126 11
1.6546631 26.7286 2.6507845 15
1.6641073 36.40704 2.6168449 15
1.7958869 -4.3170471 2.9467163 13.666667
1.7170525 -2.2432356 2.8184958 12.5
1.774086 -2.157917 2.80619 14
1.7883711 -1.8531946 2.8134975 13
1.6603785 3.1942058 2.8441536 13
1.777554 8.6289492 2.9831238 14
1.7576909 9.040246 2.9908936 15
1.6934547 11.084391 2.9395466 12
1.7806187 11.246724 2.9015248 13
1.7467556 13.834864 2.9752729 13
1.7899437 14.105421 2.9480309 12
1.7844484 16.536503 2.936125 12.625
1.6593251 16.637302 2.9200933 12
1.789777 17.491367 2.8594108 12
1.6460209 18.41116 2.8933792 12
1.7308855 20.02998 2.8729455 15
1.6448359 22.480087 2.8437202 13
1.7504265 24.187714 2.8937404 11
1.6085563 30.70705 2.895695 14
1.6155229 30.919506 2.8516617 14
1.6104498 31.154671 2.8046527 14
1.619523 11.307762 3.0945349 13
1.6817434 30.47748 3.0265472 13
1.6848907 16.745863 3.344857 13
1.7938305 30.221384 3.2647288 14
1.924489 -7.9808574 -0.6130563 5
1.8907623 -7.2757463 -0.6204443 7
1.9772263 -9.2333193 -0.57613122 6
1.8295488 -9.1972275 -0.55039972 5.875
1.9756352 -6.5472016 -0.46815544 4
1.8901722 -4.2611957 -0.523633 4
1.889349 -3.2549272 -0.4282786 2.75
1.848999 -1.9572279 -0.56155443 1
1.8350158 -1.3261647 -0.45554709 3.25
1.9308882 -0.83547878 -0.4751558 5
1.9277225 -0.68984199 -0.44328144 2
1.8929751 -0.44949317 -0.41848117 0
1.8961803 -0.29394841 -0.43760747 2.1458335
1.9608555 -0.19445406 -0.44374329 2
1.9615216 0.12599693 -0.45298046 5
1.8650761 0.33185506 -0.4055438 0
1.8953899 0.52224267 -0.40974459 0.6875
1.8075852 0.95127439 -0.43004036 3
1.9085573 1.287714 -0.42188323 3
1.800806 1.8608849 -0.43922552 5
1.9044504 2.590446 -0.54037476 6
1.9078556 4.3354063 -0.41242039 5
1.9585805 6.0783553 -0.48052394 6
1.8671169 7.5738754 -0.44962382 6
1.9417019 8.821701 -0.41960123 6
1.9196589 26.127052 -0.5009082 6.25
1.9069617 26.278805 -0.46665967 6
1.8353777 26.49132 -0.4550724 6.5
1.9141495 26.894344 -0.49067053 6
1.9672265 27.878756 -0.44661343 7
1.8186851 28.154919 -0.41984046 6
1.8220044 28.889965 -0.44158268 5.75
1.8460937 29.846529 -0.49732417 4.9375
1.861737 30.053993 -0.47686386 4.166667
1.8280222 31.374094 -0.51206154 4.5
1.8473902 31.632463 -0.52763259 4
1.8502153 32.213772 -0.51400167 4.25
1.8014762 32.749176 -0.45661092 0.33333334
1.862983 32.996086 -0.46660787 0
1.8307678 33.102448 -0.45124096 0
1.8671838 33.282902 -0.44735885 0
1.927315 33.476398 -0.46431333 0.75
1.8770088 33.640202 -0.44230244 0
1.8545018 33.878658 -0.44400185 0
1.8254112 34.029175 -0.44606909 0
1.9973971 35.065594 -0.4415175 2
1.8308544 35.311356 -0.45381206 2.25
1.976318 35.590298 -0.54611367 5
1.9441535 35.701691 -0.489151 4.4635415
1.8121414 36.01355 -0.52066487 5
1.9084661 36.974327 -0.49548656 4
1.9861188 37.162464 -0.50415426 4
1.9445648 43.130547 -0.42120543 5
1.82531 -1.9758747 -0.38892433 0
1.8516278 0.70248616 -0.24107565 6
1.9357823 1.1320374 -0.27114478 0
1.80753 1.2701614 -0.27853543 0
1.9788231 1.5530441 -0.27003103 1
1.824008 1.8364725 -0.21722269 5.9017859
1.8915911 2.1184182 -0.26957119 4.984375
1.9128585 2.2872026 -0.33546996 4.4609375
1.9644687 3.0310297 -0.26665509 5.7708335
1.8736314 3.3124676 -0.27108383 6
1.9385662 3.9874921 -0.24173513 6
1.9163723 4.2277346 -0.24881183 6
1.8639718 4.4984121 -0.2508398 6
1.8772604 5.1164389 -0.26624629 6.083333
1.8494077 5.4327974 -0.28594467 6
1.9189291 7.6024404 -0.33987063 6
1.8723035 20.526117 -0.26045969 7
1.987563 24.678123 -0.2717765 7
1.9021505 24.870506 -0.29542542 7
1.9015733 25.274441 -0.25854844 7
1.8789411 25.728748 -0.24552242 7
1.8741703 26.123758 -0.27020806 6.875
1.8427241 26.451431 -0.26928085 6.84375
1.8239772 26.919846 -0.32185119 6.5999999
1.812115 27.268013 -0.21017225 7
1.8290396 27.653246 -0.20005062 7
1.9963224 35.529343 -0.3883813 5
1.9479432 35.695358 -0.3193852 5.5
1.8074827 42.996498 -0.31291786 6
1.8007069 -9.1210814 -0.056117877 7
1.8986068 1.7286026 -0.020150587 7
1.9172153 2.154747 -0.0057817623 7
1.878378 2.231425 -0.08509621 6.8539553
1.9496307 5.3754048 -0.035052553 7
1.9968419 5.593082 -0.082652971 7
1.8448727 7.7181878 -0.073718973 7
1.8305631 8.1894608 -0.11166601 7
1.8359604 8.4998512 -0.11723138 7
1.8330908 8.9432631 -0.091400646 7
1.8068118 9.3352318 -0.13305023 7
1.8151871 9.8049726 -0.14166012 7
1.801952 10.14488 -0.14806083 7
1.9893 35.535706 -0.02879788 7.125
1.9954927 35.700542 -0.17111722 5.5
1.9764916 35.991611 -0.1324634 6
1.8293653 40.050976 -0.092405885 8
1.8576546 43.027309 -0.19271436 6.333333
1.8015896 -9.084301 0.17262912 7
1.8341088 0.74015009 0.1974048 8
1.8805494 1.8962597 0.15951622 7.2474828
1.8161192 2.1436622 0.11014901 7.5
1.8505608 2.2293212 0.13036886 7.0425353
1.8812212 2.6624939 0.15751386 7.1388888
1.924139 2.8571439 0.10321728 7
1.9848802 5.703238 0.15899685 8
1.9552419 5.8717027 0.13536371 8
1.8979334 6.0759711 0.18134001 8
1.976789 24.663372 0.028889772 8
1.9514017 25.700174 0.07778126 8.166666
1.9586742 26.06749 0.075817659 8.125
1.9022238 26.513159 0.10075232 8.1000004
1.8881028 26.902191 0.12369638 8.1499996
1.8314582 27.305664 0.12327164 8.270834
1.8501899 27.816576 0.046639405 8
1.9911176 35.522667 0.12303738 9
1.987874 35.760284 0.074124664 8.166666
1.9637225 35.849304 0.042876948 7.75
1.9241304 36.720047 0.189558 9
1.865139 41.394569 0.0041153058 7
1.931375 43.039001 0.15111545 7.833333
1.8068879 0.63725209 0.30782026 8.5
1.872438 1.783911 0.29733908 10.625
1.9605772 2.6909392 0.27581763 9.5
1.9588052 5.1454892 0.21568188 8
1.9732156 5.3744898 0.22665147 8
1.8989602 5.6856012 0.28965145 8.604166
1.9648438 5.8227987 0.21931005 8
1.966581 24.659119 0.33025587 9
1.9031744 24.926765 0.36787176 8.5
1.9857787 25.170937 0.20973761 8.5
1.9554057 25.333681 0.2036427 8.5
1.9618518 25.564596 0.37470528 9
1.9209082 25.809669 0.36562109 9
1.9975834 26.159372 0.31207585 8
1.9041772 26.56852 0.33612442 9
1.9065166 26.782274 0.30191204 8
1.8702219 27.04882 0.30769289 8.5
1.8582897 27.477711 0.35007432 8.5
1.9976909 35.493126 0.28944683 11
1.96842 35.737392 0.38001299 10
1.9365584 36.701294 0.32204279 9.625
1.810529 37.873787 0.32798406 8.75
1.8845081 39.576313 0.23517483 9
1.9791441 43.009666 0.20277095 8
1.9523468 -9.3007708 0.4376142 8
1.8031669 0.77932823 0.4188934 9
1.8223996 1.883638 0.43795681 9.75
1.8962284 5.7640057 0.57616103 10
1.8139191 6.17068 0.4963232 9
1.808037 7.873076 0.4805266 9
1.9513029 24.746359 0.54016495 8
1.881143 24.813303 0.54136372 8
1.9273734 25.432142 0.53281707 9
1.9080393 26.093796 0.53762376 9.6000004
1.8731644 26.52639 0.54232121 9.5583334
1.8471071 26.916374 0.58563197 10.083334
1.9070282 27.128284 0.40558895 8
1.8556156 27.282566 0.57318091 10.072916
1.9727538 35.719231 0.43403268 11
1.8867521 38.828266 0.52304226 10
1.8654572 39.15126 0.48369163 9.25
1.8447566 43.034027 0.48552275 9.2333336
1.833508 0.54898107 0.73045665 10.428572
1.9933996 3.9482894 0.61996043 10
1.9622235 4.5597591 0.63543665 11
1.8853889 5.0506301 0.68982154 10
1.863044 5.416481 0.67815059 10.25
1.9598584 24.715199 0.62848145 10
1.9241352 25.761797 0.62453336 9.6875
1.9662333 25.939913 0.66265833 10
1.927783 26.344084 0.6344375 10
1.9252591 26.768763 0.69474226 9.5
1.8039274 27.316544 0.65109622 11
1.8283591 28.160616 0.74293357 11
1.8203316 35.68568 0.66203904 11.428572
1.8978662 38.839211 0.78403008 11
1.8897313 -9.2932644 0.95959514 8.4273787
1.9233969 0.85862446 0.82794327 10.9
1.9139433 24.733555 0.88179696 10
1.9484556 24.92384 0.84771836 9
1.9557996 25.183208 0.93742597 9
1.9042053 25.291157 0.84841239 9.708334
1.9273806 25.729248 0.92196202 10.666666
1.8919529 26.099239 0.92015529 10.916666
1.8492601 26.550201 0.87392688 10.75
1.8372309 26.923328 0.99034321 11.583333
1.8698106 28.042669 0.99156684 12
1.8327904 42.981766 0.94473326 10.65
1.8358727 -9.6358795 1.0067413 9
1.8676512 27.38266 1.0805187 12
1.8726749 27.824787 1.0919926 10.5
1.8214922 38.706005 1.0903372 11.75
1.8444179 38.92104 1.0231109 11.919642
1.8392625 39.048985 1.0748582 12
1.8354568 -9.4435034 1.3539907 10
1.9882966 24.657562 1.2433912 12
1.8592311 24.858389 1.3641928 9
1.896539 25.310394 1.299804 10.75
1.9052296 25.694038 1.3233588 11.708334
1.8309977 26.098112 1.2863109 10.484375
1.8351791 26.507261 1.3513472 12.339583
1.9098835 27.149401 1.3859293 10
1.8382335 28.117462 1.3064115 10
1.8123174 28.540804 1.2795534 10
1.8402648 41.320488 1.2860248 12
1.8181297 42.991676 1.236147 11.75
1.9391956 -9.3134012 1.591874 10
1.9499516 -9.1815948 1.5469848 10
1.8595195 24.737881 1.5432913 11
1.8737651 24.870489 1.4106261 9
1.9597642 25.719246 1.5324099 10
1.922132 26.095493 1.5356334 10
1.9830632 26.238966 1.4560616 10
1.9072547 26.763884 1.4158325 10
1.8584685 26.926991 1.4717945 10
1.8179111 28.130377 1.4649769 14
1.8584241 43.435886 1.57367 12.333333
1.9381847 -9.3321323 1.6016903 10
1.897233 -9.1972075 1.7446784 10.5
1.8247266 -7.1513686 1.7596142 15
1.8510675 -6.8108416 1.7737943 14
1.927845 24.519276 1.7251523 11
1.9410291 24.738647 1.7188756 11.5
1.986338 24.827168 1.6449198 13.4
1.870028 25.164167 1.7247808 13
1.970458 25.209602 1.6038477 10
1.877326 25.639582 1.6487529 13.5
1.8616924 26.089056 1.7259212 14.070833
1.8037952 27.460129 1.7936153 12.758333
1.8115621 29.638845 1.7826076 10
1.8191514 -7.4771423 1.8097404 12
1.930117 -7.1176243 1.8446695 14
1.8479836 -6.7493253 1.8922923 15
1.9266382 -6.1961761 1.9021525 13
1.8732457 -5.9862175 1.9581372 11.75
1.9283378 24.505394 1.9393859 11.5
1.9017003 24.686928 1.8439493 12.5
1.8871014 25.417557 1.8437545 14.5
1.9002986 26.735836 1.9809463 11
1.8329635 27.835091 1.8573629 11
1.8951321 31.786678 1.8162721 12
1.8795938 37.998405 1.8242956 12
1.8243228 38.191418 1.8869452 13
1.9171753 38.772732 1.8153968 12
1.8309778 39.494759 1.8813944 13.5
1.8152413 40.704006 1.8803542 12
1.913372 -9.205328 2.1358218 11
1.9322867 -9.192749 2.0489953 12
1.933776 -6.8749075 2.0106804 14
1.8119178 -5.9437523 2.1436634 12.25
1.919179 24.599405 2.0437362 12
1.9048499 24.651485 2.1832347 15
1.8309021 24.875959 2.0895743 10
1.930316 25.160648 2.0570779 14.5
1.9359213 25.674828 2.1815841 13.383334
1.9690437 25.812384 2.1557758 11
1.9181867 26.101524 2.1222773 11.833334
1.8929166 26.495842 2.0928428 11.59375
1.8865185 27.085442 2.0151336 11
1.8399504 31.856693 2.1588354 14.25
1.9311371 37.717873 2.0906839 13
1.9153609 40.343399 2.0365524 12
1.8022203 40.609657 2.0231202 12
1.8139396 43.908203 2.0829897 9
1.958914 24.493176 2.2536039 13
1.8912821 24.688875 2.2696223 11.21875
1.8704039 24.867325 2.2818112 10
1.9661545 25.373053 2.2473681 13.333333
1.9007306 25.556065 2.3584466 11
1.8436341 26.371235 2.2684364 11
1.9201264 26.659525 2.2362714 11
1.8371611 28.098217 2.3504245 12
1.8005024 37.843895 2.2069702 13.125
1.8799789 41.068001 2.2002506 14.5
1.9282439 5.4450855 2.5806046 13
1.8939886 24.549307 2.5728219 12.234375
1.9424727 24.712997 2.5188944 15
1.9973712 24.826487 2.4392495 11
1.9220033 25.09001 2.4100938 11
1.9224904 25.20377 2.400111 15
1.9802899 26.440456 2.5876315 12
1.8956304 26.972649 2.5133994 12
1.9645414 37.165249 2.594687 14
1.8485222 41.206276 2.4343934 13
1.9356527 43.444313 2.4055028 14.6
1.8106374 -4.4761381 2.6494927 13
1.8218117 -2.295671 2.7184901 11
1.8333168 3.1331892 2.7529314 15
1.8590696 3.2932553 2.7484875 13.3125
1.9456006 3.6943562 2.7344425 14.166667
1.8438654 19.293049 2.7094023 11.5
1.9183908 19.480284 2.7045512 11
1.9896445 24.383389 2.6206994 15
1.998034 25.825056 2.679153 12
1.9620628 36.326782 2.6761708 15
1.9032192 -2.1795688 2.8034043 13
1.8522677 -1.9226646 2.8273845 13
1.9465332 3.2679834 2.8333807 13
1.8715796 5.9391603 2.9709167 12.5
1.8224602 6.1150818 2.9569902 13
1.8615408 11.127559 2.9619136 13.055555
1.8750135 11.27821 2.9903021 13.5
1.8194022 12.541031 2.8999271 13
1.9304814 12.963771 2.8457797 13
1.9246793 13.2557 2.8560605 14
1.8548152 13.787526 2.9676874 13.25
1.8283825 14.165866 2.9528959 12
1.8636618 15.125929 2.8688412 11.5
1.877449 15.738929 2.9091356 14
1.9448485 15.946949 2.8132515 13
1.8980737 16.228497 2.8494754 12.75
1.8671217 16.951015 2.9287601 11
1.8178651 17.474623 2.8563247 12
1.8364484 17.951471 2.9493709 13.5
1.8614939 22.243561 2.8375514 12.5
1.9586363 24.445282 2.8716202 14
1.8002608 24.667271 2.8980379 12.5
1.8338079 24.876982 2.9719906 11
1.9176226 36.538879 2.9103608 15
1.9003873 11.263012 3.0305223 13.5
1.8771027 18.183931 3.0106461 12.333333
1.8729608 18.649601 3.0069003 11
1.8827181 19.088394 3.0080843 11.3125
1.8423917 19.274647 3.0432143 11.625
1.8087442 30.236078 3.0616095 13
1.8400536 30.489479 3.3791406 15
2.132391 -9.2837658 -0.65058285 6
2.1776075 -9.1786766 -0.61705935 5.9375
2.081913 -8.5479736 -0.6927321 6
2.1389499 -8.1745815 -0.68317103 6
2.1355679 -7.987443 -0.60800099 5
2.0103784 -6.6179976 -0.70419413 5
2.0617144 -9.2612991 -0.53535581 6
2.1207175 -4.4517612 -0.42714417 3
2.033417 -4.3411913 -0.52237904 4
2.1429968 -3.6263797 -0.50380367 5
2.1815193 -3.2813854 -0.41467005 2
2.1513958 -1.5063076 -0.4643839 3.5
2.174309 -1.0808175 -0.43840721 1
2.0217779 -0.82507253 -0.42483231 2
2.0456669 -0.54310632 -0.42630047 2
2.030308 -0.27165917 -0.41937721 2
2.0509312 -0.10160929 -0.41660386 2
2.101826 0.11365958 -0.42578438 3
2.1675019 0.29966283 -0.42331284 3.5
2.1266682 1.5941559 -0.41138607 3
2.1244507 2.2417397 -0.48103631 6
2.0491099 2.7870579 -0.41883621 4
2.1421678 3.4420726 -0.4131512 4.5
2.1292725 6.4416761 -0.47893852 6
2.0509195 9.478548 -0.42975506 6
2.0808427 9.885314 -0.45582384 6.5
2.0949764 19.373535 -0.40517336 7
2.1888704 27.927055 -0.44353762 7
2.1907623 28.738935 -0.4484137 5.3333335
2.1436536 31.156031 -0.45552155 2.75
2.008193 31.57793 -0.55845487 6
2.0621946 31.808121 -0.53261828 4.7678571
2.1784849 32.168198 -0.49868932 3.3333333
2.1467481 34.930397 -0.46480462 5
2.1222885 35.082912 -0.48378491 2.25
2.0753949 35.31847 -0.45127249 1
2.0536995 35.525726 -0.46953928 4
2.0791872 35.698101 -0.49592987 2.3333333
2.0907044 35.880737 -0.52661753 4.8786459
2.1837811 36.200623 -0.55733597 3.5
2.1278238 37.287437 -0.50408828 4
2.17276 41.536602 -0.43634149 6
2.1212821 41.750656 -0.43635938 6
2.1665106 -9.2624121 -0.32404792 6.7702546
2.011569 -1.8506541 -0.37755305 0
2.0197394 -0.086656108 -0.39855936 2
2.0642536 1.4605267 -0.2627129 1
2.0681875 1.9150101 -0.27410686 4
2.1249866 2.1022038 -0.31621832 5.5467124
2.0919962 2.2641435 -0.30227727 5.7419367
2.096257 2.524071 -0.27198803 6.1825953
2.181814 2.6622005 -0.26964512 5
2.0269721 5.1658058 -0.2728824 6
2.0178945 5.3427505 -0.22963652 6
2.1774716 24.732933 -0.3076207 7
2.1669841 24.860355 -0.25999519 7
2.0847204 31.701057 -0.33230084 3.9444444
2.0959697 31.853535 -0.39369962 0
2.042655 35.358803 -0.21558374 7
2.0364747 35.532417 -0.31029728 6.1435184
2.0856447 35.680672 -0.30940607 5.3000002
2.0174766 35.850975 -0.31350031 4.25
2.0513334 36.277008 -0.26546806 5
2.148201 41.573322 -0.33929977 7
2.0811994 41.787041 -0.31230608 6.6374998
2.1598935 41.848915 -0.31103602 6
2.1114025 -9.2482386 -0.13403648 7
2.1246538 -9.1468544 -0.13701198 7
2.1000161 1.7375594 -0.094391763 5.8333335
2.0519867 1.8138012 -0.0052901134 7
2.0861919 2.0755947 -0.11091956 6.3333335
2.1517189 2.3235712 -0.125147 5.75
2.1771054 2.5138421 -0.16453025 5.5
2.1204495 2.764926 -0.077860795 6.5
2.1143911 2.8726995 -0.079893053 6.5833335
2.0708897 3.3144367 -0.17831877 6
2.0813241 3.4613779 -0.18515643 6
2.0637107 3.8844957 -0.16049394 6
2.0322404 5.0931802 -0.083234571 6.7916665
2.0369706 5.3159008 -0.087029234 6.7777777
2.0577416 5.6461892 -0.061802298 6.9166665
2.0159762 5.8425307 -0.088121444 7
2.1457775 31.711737 -0.1132578 6.3333335
2.0455136 35.391052 -0.10025505 7
2.0280027 35.454727 -0.15022033 6.25
2.0380325 36.013306 -0.023677438 7
2.1635242 41.372303 -0.036977727 8
2.1627696 41.506474 -0.1880949 6.6666665
2.121696 41.750546 -0.042217646 8
2.1599932 41.838696 -0.092428885 6.5
2.133955 -9.1902084 0.098267585 8
2.0160019 1.6658194 0.0070466548 7
2.1728349 1.9812217 0.16631868 8
2.0763569 2.1414948 0.12925419 7.5338001
2.1107168 2.231065 0.065544158 7.125
2.1042681 2.4650731 0.084192082 7.0314851
2.1151156 2.697175 0.13754587 8.0625
2.010756 5.1140866 0.14243926 8
2.0091798 5.3110251 0.1916219 8.083333
2.0189962 5.4533014 0.15405309 8
2.1303928 24.67445 0.10712703 8
2.1400108 24.860243 0.080379032 8
2.0311067 25.284607 0.11264219 8
2.0459523 26.428328 0.16101947 8
2.1896462 31.679222 0.13842642 9
2.0513806 35.497974 0.083599366 8.09375
2.0898604 36.762959 0.18452923 9
2.1424499 41.332703 0.13740118 8.5
2.1503932 41.433296 0.19232726 8.270833
2.1296384 41.722679 0.15590549 8.3374996
2.1393299 41.820118 0.1986044 8
2.044147 1.845665 0.26407576 10.055555
2.0584624 2.2300034 0.22202061 9
2.071743 2.6343863 0.30495638 10
2.0122976 2.8231516 0.20957799 8
2.0550456 4.0314517 0.34632441 8.5
2.0013161 5.4742813 0.2129944 8
2.1459179 24.821365 0.3294965 9
2.0632172 25.67057 0.24507804 8
2.0235038 26.03227 0.24003741 8
2.1082878 35.460045 0.28855291 8.875
2.0346043 35.753075 0.24229588 9.375
2.1153102 36.709259 0.28666309 9.6031742
2.1356764 37.769043 0.34678268 9
2.1913762 38.62878 0.26817548 9
2.1776233 41.340343 0.36664113 10
2.0767612 41.401035 0.39863127 9
2.1474319 41.761047 0.35024333 10
2.1385274 41.820145 0.39345387 9
2.1637003 -9.2493906 0.56501216 8.8243818
2.0317409 -9.1984768 0.57705104 8
2.009469 3.0681407 0.57591695 11.5
2.0435386 3.7927141 0.52609277 10
2.0350964 4.1326618 0.58208495 11
2.011302 5.0846238 0.50615364 9
2.1640313 24.838791 0.46263692 8.9666662
2.1109347 25.353148 0.44825062 8
2.068254 25.776138 0.43810022 8
2.0688033 35.545898 0.47436875 9.7076225
2.0045209 35.663536 0.54351574 10
2.1073754 36.552437 0.5091458 11.396875
2.1020641 36.700577 0.57373226 11.75
2.1854579 37.686241 0.56885946 10.416666
2.1009393 39.017563 0.44231242 9
2.1885772 41.384533 0.56589395 11
2.1583204 41.461441 0.57119703 9.708334
2.1655006 41.730671 0.56958932 10.458334
2.1494548 41.823914 0.49962986 9.5
2.0619626 24.689077 0.75195044 10
2.1871271 24.825798 0.62680459 10
2.0333033 25.425571 0.6984868 10
2.1484904 31.596388 0.73212039 15
2.0705874 35.490597 0.73331273 12.625
2.0866482 35.708622 0.66451508 10.69323
2.0500693 36.667255 0.70336038 13
2.1837301 41.343307 0.77338737 12
2.1258001 41.402233 0.7890054 11
2.1361473 41.752647 0.6964587 11
2.1772065 41.818478 0.78100306 11
2.1382065 0.57272482 0.8221581 11
2.0366526 24.714161 0.88499367 9.5
2.1780584 24.852066 0.92149031 11
2.01056 25.132076 0.87134898 9.75
2.1455717 35.506187 0.8225596 11.125
2.0367734 35.746582 0.82544625 10.375
2.1228485 35.934612 0.87087524 13
2.0475278 36.028763 0.87140578 11.5
2.0779171 36.213032 0.9103896 13
2.1070566 36.514709 0.86091965 13.25
2.1944966 36.905018 0.91962188 15
2.1980309 38.596272 0.89896041 11.5
2.1087737 38.850914 0.94421434 11
2.1054199 41.412102 0.98858947 12.5
2.1403158 41.73867 0.97868121 11.75
2.1721339 41.819801 0.87048924 11
2.0285153 -9.2360477 1.026194 9
2.1371412 -9.1937857 1.0765833 10
2.020978 24.755136 1.0917243 11
2.1759653 41.336292 1.005706 10
2.146883 41.49477 1.1428866 12.668651
2.1592858 41.743591 1.09322 12.375
2.1387019 41.892654 1.1869586 13
2.0630822 24.793396 1.2067004 9
2.180949 24.844856 1.2512767 11.856482
2.0308876 25.123217 1.3857133 12
2.1024988 41.386505 1.2610561 11.25
2.1672721 41.402977 1.3846357 14
2.1598148 41.768578 1.333678 12.566668
2.1593027 41.865707 1.3691735 13.5
2.1066122 -9.3322372 1.4789686 10
2.1514862 -9.1799412 1.553399 10.523438
2.1475277 24.692427 1.5111532 10.0625
2.0466022 24.821007 1.5248092 13
2.0337532 25.354443 1.4472184 11
2.0239182 25.753874 1.4936082 10
2.0336206 26.213434 1.457006 10
2.0783443 41.753311 1.4366556 11
2.1850328 43.032043 1.4176226 14
2.1450291 -9.2749777 1.6727927 9
2.1740704 -7.1076469 1.7639656 15
2.0879121 24.932781 1.6895969 11.5
2.1753917 -9.183197 1.9174215 12
2.1682165 -7.2592306 1.877449 13.75
2.1616788 -6.8700895 1.8586614 14.75
2.1183667 -6.6888709 1.8962269 15
2.137033 -5.9800215 1.9160345 12
2.0178304 24.331629 1.9360898 13
2.0520229 24.627411 1.8472403 10.375
2.14644 24.816364 1.8351175 14
2.1136875 31.43639 1.8501662 14
2.1985505 31.765375 1.8694385 13.333333
2.1999588 38.207783 1.8836615 12
2.0375166 38.858807 1.8408196 12
2.1048493 40.53294 1.8970376 12
2.145257 40.607018 1.9007652 13.5
2.1967492 40.815475 1.927009 15
2.1523294 43.39397 1.9041338 11
2.1183901 -9.260807 2.1740348 11.529948
2.1185384 -9.1648054 2.061816 12
2.1442342 -6.7535648 2.0064437 14
2.131325 -6.1191678 2.0641029 12.666667
2.0387762 -5.9352865 2.0278971 15
2.0874319 24.465961 2.0513275 12
2.0654399 24.683399 2.1551168 14
2.0856879 24.828167 2.1424477 15
2.0333972 25.171963 2.1671207 10.5
2.0645258 25.370909 2.1810212 10.5
2.0467317 25.699371 2.1486387 10.5
2.004334 26.196985 2.0850604 10
2.1800683 31.880501 2.1975377 13.75
2.0781577 43.914009 2.0818753 9
2.1129684 24.68033 2.2728498 10.767361
2.0938115 36.151657 2.31636 14.166666
2.0725198 -5.9167094 2.412991 15
2.1450682 18.86145 2.5860827 15
2.1807537 23.391708 2.5951324 13
2.1216257 23.52297 2.5629089 11.666667
2.0500679 24.345158 2.4488084 13
2.1264021 24.621082 2.5333633 10.96875
2.1810625 24.876266 2.4614742 15
2.0511012 31.889801 2.4174571 13
2.1620915 41.229233 2.5422144 14
2.1454744 -4.9446769 2.6086557 14
2.0483322 -4.4359856 2.743701 11
2.1742184 -4.2822843 2.739691 13
2.1176777 3.0124457 2.6774111 11
2.0220556 3.7562933 2.7626715 15
2.1882248 7.0002861 2.7757206 11
2.1575255 11.443309 2.7601352 12
2.0651836 24.419212 2.7357819 13
2.0853662 25.227272 2.7643936 12
2.0474019 25.613348 2.7081456 12
2.0145769 26.064253 2.642082 12
2.1116791 41.707306 2.6154602 15
2.1960003 -4.3231945 2.8663106 14
2.0425129 -2.331157 2.8037491 10
2.0813408 -2.1638575 2.8112082 12.333334
2.0655856 -1.8793344 2.8161082 14
2.15588 5.97364 2.9315181 15
2.0942574 8.0479212 2.9606781 14
2.094903 8.5932035 2.9212589 14
2.0558057 10.303785 2.9485109 15
2.1077297 10.734064 2.9446406 15
2.1929703 11.158229 2.9943712 13
2.0846453 11.3168 2.8721883 13
2.0446115 11.98068 2.9141605 14
2.1966739 12.212225 2.9073806 14
2.1255882 13.064317 2.881669 13.5
2.1190238 13.809109 2.9974973 13
2.0016584 14.360677 2.9641891 12
2.1332593 14.502689 2.930059 12.583334
2.10496 14.948903 2.9067574 13
2.1572104 15.908549 2.9217446 11.666667
2.1310844 16.260017 2.9181905 13.125
2.0118303 16.693995 2.9441969 11
2.0615416 17.268682 2.9456172 11
2.1221886 22.004259 2.8416836 14
2.0413089 22.258076 2.8386517 11.5
2.1352134 24.598373 2.9379468 12.833334
2.1411033 24.876513 2.8144419 12
2.1169825 25.01429 2.9387317 12
2.0953712 25.369226 2.8871222 12
2.0544624 25.643015 2.8483708 12
2.1528697 30.254562 2.9838364 13.666667
2.0870976 9.3312588 3.006613 15
2.1664004 13.367863 3.0700479 12.333334
2.1304235 15.005584 3.0036938 12.333333
2.0183563 18.223774 3.0529466 11
2.0164824 18.784925 3.1146867 11
2.0053301 19.284845 3.1709397 11
2.0275245 30.231869 3.1348641 12
2.1829126 14.076687 3.2625029 14
2.0101871 30.419735 3.3734918 15
2.253088 -7.1228714 -0.61217016 7
2.2648866 -9.2343111 -0.54988033 6
2.2071357 -6.5013218 -0.59381986 4.9166665
2.2973638 -6.3193369 -0.57179666 5
2.2332401 -3.3128288 -0.42066473 2
2.3348799 -3.0239697 -0.46387285 4
2.3090346 -2.5940928 -0.46190995 3.25
2.2143583 -2.2886834 -0.48490265 5
2.3007088 -1.7061173 -0.48138261 1.5
2.3378334 -1.5204254 -0.45005313 2
2.2233922 -1.275048 -0.44602641 2
2.251868 -1.1913791 -0.4435665 0
2.2155774 0.53408915 -0.42296332 3.4375
2.2667689 0.68656582 -0.40985599 2
2.3506308 0.99494791 -0.41662413 5
2.2267544 1.7526394 -0.4140949 3
2.2431507 3.1753297 -0.53104264 6
2.3213243 3.6238132 -0.4117792 4.5
2.2598293 4.4649124 -0.40862861 5
2.3018255 5.2618966 -0.40740693 5
2.2350373 6.8613348 -0.47460294 6
2.3775787 7.0915699 -0.47570002 6
2.3782337 7.4245534 -0.4491578 6.3333335
2.3472075 10.167186 -0.44527009 6.3333335
2.21626 17.450718 -0.44714975 6
2.3064284 17.670025 -0.44531754 6
2.3143053 19.26425 -0.40255284 7
2.3635283 22.532677 -0.45360404 6
2.2243567 23.066574 -0.46211168 6
2.2507262 26.059662 -0.50179899 6
2.2433693 29.80505 -0.50855196 5
2.3856127 30.264389 -0.48621958 4
2.2019722 30.739864 -0.42317128 3
2.2372613 30.931461 -0.57553655 6
2.398613 31.158318 -0.41956475 2
2.2299919 31.354294 -0.4744198 3
2.3019934 31.476469 -0.46034211 2.8571429
2.2608638 32.300598 -0.46216613 2
2.2116714 32.580544 -0.52689946 5.0555553
2.2825756 33.006508 -0.5276978 4.75
2.3075955 33.420815 -0.48616534 3
2.3731217 33.921486 -0.44632393 1.5
2.2219043 34.293434 -0.46619612 1.5
2.3635409 34.5513 -0.44170299 2
2.3016458 34.690849 -0.48143452 2.1666665
2.255681 35.504684 -0.41134021 2.8333333
2.3560822 35.609966 -0.40990198 3
2.3014936 35.849773 -0.51111507 2.5
2.2735846 42.981453 -0.49869174 5
2.2205567 -1.7917119 -0.38535643 0
2.3659415 0.19177718 -0.25264907 0
2.2607574 0.6695677 -0.32322389 1.5
2.3035088 1.0931199 -0.36404228 0.03125
2.2987163 1.3256418 -0.29866949 0.875
2.2705622 1.5512965 -0.39832944 1
2.2737792 1.7311977 -0.32095149 3.6597223
2.2518966 1.876438 -0.37844706 4
2.2975278 2.0610318 -0.28181136 2
2.2186093 2.4297981 -0.31050384 4.5
2.2137499 31.689123 -0.33723664 4
2.2524128 35.435745 -0.30467525 6.614759
2.2566814 36.861153 -0.20497809 5.916667
2.2265613 37.004776 -0.20648253 6
2.2035401 40.598789 -0.20893693 7.25
2.2029865 40.921028 -0.30426148 7
2.2364383 43.052757 -0.23167463 6.0999999
2.3031225 -9.3921061 -0.10726849 8
2.2325885 -9.1300278 -0.11798562 6.9980469
2.2122719 31.764713 -0.0020714998 7.5
2.26406 35.34528 -0.098651819 7
2.3556454 36.889019 -0.17893675 6
2.3148627 40.204193 -0.085488051 8
2.2893491 -9.1045065 0.19302964 7.15625
2.2478962 31.743298 0.18872021 9.5007935
2.2590475 35.384834 0.083720997 8
2.2950966 35.537331 0.089592464 8.5252085
2.3500586 36.041668 0.022847623 8
2.3506296 36.749542 0.17331721 9
2.2357593 -9.2674141 0.30118954 8.0615234
2.2125807 24.772863 0.33511597 8
2.2870278 31.562057 0.32433736 10.75
2.3701119 31.798393 0.24531049 10
2.3460045 31.847708 0.3863056 11.5
2.3511069 36.441792 0.39114416 11
2.2994499 36.685005 0.37335339 10
2.3528728 37.516022 0.35622507 10
2.3087578 37.887306 0.33432046 9
2.2461796 43.014675 0.26662606 8.0625
2.2783406 24.702484 0.52365673 8.1875
2.2956395 36.488548 0.50283849 11.5
2.3521366 36.724236 0.52904081 11.5
2.2499163 36.811485 0.45288479 9
2.3463569 38.520435 0.45703843 10
2.2895205 43.033947 0.58498704 9.208333
2.3102598 -9.4532499 0.63572913 9
2.2086139 3.3039205 0.67354554 10
2.3096459 24.859241 0.73410863 10
2.2645087 31.514616 0.70205379 14.333334
2.2247837 31.683317 0.64926106 14.166667
2.2295005 36.500538 0.61720002 12
2.2625365 36.740562 0.68397963 13
2.2942953 -9.2756119 0.93359578 8.3363104
2.2516444 24.879467 0.90546787 10.35
2.2570691 35.475872 0.83165276 10
2.2674694 36.55706 0.87149775 14.564816
2.3260241 37.524246 0.90164298 13.125
2.2535954 38.331802 0.99170643 12
2.2172441 -9.1966667 1.0035756 9.708334
2.2565823 24.916269 1.0670012 11
2.243782 41.538376 1.1567838 11
2.2335086 42.993515 1.1147938 11.361111
2.2701178 -9.41961 1.3772475 10
2.309732 41.17065 1.275736 13
2.3573751 43.03709 1.3771113 14
2.3604984 59.372978 1.3291888 11
2.2228799 -9.2458477 1.5306404 9.6775169
2.3279481 24.736729 1.4032055 9
2.3786414 24.887941 1.4050297 12
2.2547827 43.411194 1.5408373 12
2.2748859 -9.245863 1.7303374 10.369141
2.3273699 24.863014 1.6844287 12.7
2.3757534 58.228569 1.6448766 12
2.3680339 58.650234 1.6957133 12
2.3378077 59.039253 1.7450266 12
2.3346944 59.406921 1.7901646 12
2.2516503 -6.8660192 1.8597695 14.5
2.3034148 -6.6015425 1.8738539 13.21875
2.3680868 -6.5900774 1.9490041 14.5
2.2800894 -6.3431902 1.9146472 15
2.2012212 -6.0983524 1.9362617 14
2.2426686 24.659758 1.840571 10
2.2242427 31.521641 1.8336143 13
2.2888355 31.894054 1.8657439 13.5
2.2747784 37.944519 1.8611737 12
2.2789383 38.096958 1.8793681 12
2.3767138 38.230583 1.8148065 12
2.3312447 38.58522 1.847846 12
2.3517427 40.206055 1.8899034 12
2.2354255 40.891064 1.9772956 13
2.3028998 43.508869 1.9579539 11.175926
2.2263703 -9.1754627 2.073035 12
2.2171495 24.782953 2.077841 10
2.2946384 24.84911 2.1279104 13.972222
2.3180828 31.878557 2.1809969 14
2.3984628 37.747101 2.0509784 15
2.3807907 39.489037 2.0755293 12
2.2211876 40.199997 2.0179863 12
2.2463675 -5.9294834 2.2476697 14.184029
2.3321397 24.662746 2.2742734 11
2.2805076 36.075584 2.3745537 15
2.2633841 37.867161 2.2579257 13.611111
2.2536671 41.031101 2.20788 13.666666
2.3359394 41.268261 2.357991 13
2.2084818 43.479942 2.2136152 13.25
2.2378528 24.876059 2.4513695 13.666667
2.3970985 37.082771 2.4893687 14
2.3704605 37.200779 2.5000827 14
2.2430582 -5.0827246 2.6069837 14
2.288079 -4.50351 2.6491823 11.1875
2.305563 -4.3913064 2.7167668 11
2.3502502 0.73184365 2.7784421 11
2.2245533 3.0274854 2.6447554 11.25
2.3061898 3.318985 2.6983445 12.375
2.2102785 5.4836893 2.7068136 15
2.2460899 11.664814 2.7376251 14
2.2013812 11.852751 2.6395802 14
2.2072754 15.289293 2.7997484 13
2.2164943 19.318378 2.7086465 11.083333
2.3056831 19.47348 2.7191415 11
2.3568435 24.382622 2.7216125 15
2.2011447 36.258499 2.6040359 14.5
2.3631935 38.215225 2.6458786 14
2.212419 41.261993 2.6848745 15
2.3183727 -4.5485048 2.8214591 10
2.2118034 -2.1712809 2.8151193 15
2.3491869 4.7557735 2.8350108 13
2.2118578 6.1465063 2.8911109 12
2.2413673 6.6281681 2.8167071 11
2.3333964 7.083046 2.9516556 13.25
2.3704543 7.4643745 2.9825683 14.25
2.3077888 8.2778358 2.9803877 14.25
2.2466698 8.6816788 2.9355457 13.875
2.3704166 8.9298105 2.9255219 14
2.3387003 9.0572948 2.9511504 14
2.3590188 10.111577 2.9447095 15
2.3532448 10.578806 2.9052134 13.629629
2.3218594 10.91446 2.9354203 13.552084
2.231483 11.15868 2.9576023 14
2.3335643 11.330948 2.9310737 13.375
2.2648697 12.092207 2.8214931 14
2.3978424 13.295611 2.9178095 13
2.3721752 14.479514 2.8895495 13
2.3645449 15.059015 2.918889 13
2.2047615 15.809364 2.8150253 13
2.3133779 16.657045 2.8855839 12.75926
2.2041147 19.059986 2.8814733 12.75
2.2251811 24.727535 2.9490042 11
2.2737179 36.559532 2.9864147 15
2.357029 7.4873996 3.0064142 12
2.3625584 7.888206 3.0151176 13.5
2.3287277 8.2732382 3.0388088 15
2.3447142 8.7187595 3.0276175 14
2.3571362 9.5159168 3.0153558 14.25
2.354975 9.7885246 3.0495517 13
2.3456292 10.055779 3.1373982 15
2.322571 10.257352 3.0514665 13.611111
2.3005733 15.496611 3.0020568 13
2.2407935 19.327911 3.0263724 12.53125
2.364553 30.575577 3.0317314 13
2.3273678 9.845129 3.2293139 14
2.2943134 10.121444 3.2851222 14
2.2696028 10.671279 3.2484236 14.083334
2.2728343 11.096069 3.3268795 14.055555
2.3942485 11.238315 3.242841 15
2.3460407 13.903771 3.2419562 13
2.3201494 30.242292 3.2991033 14.5
2.3879309 7.6246772 3.4615853 14
2.2642117 11.202244 3.4919004 14
2.4401727 -8.3694305 -0.629915 5
2.4482613 -8.1028242 -0.66597855 5.96875
2.474385 -7.9974518 -0.60058504 5
2.5981209 -6.5132627 -0.63572335 5
2.536088 -6.5207624 -0.58308023 5
2.4269116 -6.3196621 -0.57243574 5
2.5425081 -6.1308012 -0.56547379 5
2.4462016 -2.9127741 -0.46939269 4.25
2.5868919 -2.4588559 -0.43512702 2
2.4893968 -1.7184541 -0.49724954 1.0833333
2.5943637 -1.0384684 -0.44351023 1
2.531111 -0.74910879 -0.4320372 1
2.4250047 -0.32551879 -0.4348878 1
2.4709635 -0.024168221 -0.42124674 1
2.5034828 0.29078308 -0.42114234 1
2.4264746 1.0039431 -0.40543687 2
2.4960804 1.414623 -0.40732884 5
2.4453092 2.9592295 -0.4066121 4
2.4725866 3.6730828 -0.40470913 4
2.4338689 3.8529899 -0.41764882 5
2.4440842 7.4603977 -0.4380908 6.5
2.4177842 9.7926264 -0.50404769 7
2.5483122 10.273104 -0.48211512 7
2.5286527 10.706253 -0.48868138 7
2.5546823 10.928563 -0.48499739 7
2.4136305 17.869699 -0.44459695 6
2.4356871 18.098143 -0.44084066 6
2.5419989 18.301445 -0.44045627 6
2.5435934 22.390236 -0.45272693 6
2.425128 22.68457 -0.45683244 6
2.5704398 28.067486 -0.43710658 7
2.4581785 29.956654 -0.43292534 4
2.5365314 30.155577 -0.51274848 5
2.5406723 31.698277 -0.46338388 3
2.5916896 32.327 -0.47679964 3
2.4010539 32.581474 -0.45539927 2
2.4378991 32.708153 -0.4702886 2.625
2.5216641 32.907433 -0.4910652 3
2.4670506 33.147446 -0.50182009 4
2.5611007 33.359718 -0.50562203 3.25
2.45978 33.539066 -0.48251992 2
2.5209317 33.718704 -0.53121918 4.75
2.5712044 34.124676 -0.44969445 2
2.4309201 34.381462 -0.44014016 2
2.4076905 34.464535 -0.47744116 2
2.4376884 34.816475 -0.48473197 2
2.4192221 35.349354 -0.40109518 5
2.5950603 35.452198 -0.50666302 4.5625
2.5867157 35.871189 -0.52908456 2
2.5820835 36.266098 -0.51831508 3.75
2.568589 36.772907 -0.46438384 4
2.498219 41.526844 -0.41749388 6
2.424356 42.581627 -0.58907241 5
2.5886316 43.199463 -0.54399854 5
2.5319841 -9.2559872 -0.309558 6.8007812
2.5098729 -1.6400641 -0.38968682 0
2.4398661 1.0676144 -0.25212729 1
2.5926156 1.3497875 -0.3746292 4
2.5092227 1.4846482 -0.37397107 4
2.5014391 1.6622341 -0.34932441 3.5
2.5306411 1.9160296 -0.27489614 2
2.4053631 2.3660915 -0.31779972 5
2.4012094 7.6496086 -0.33600432 6
2.5415611 10.601721 -0.38684011 6
2.4894094 24.878075 -0.24942793 7
2.5597382 31.601955 -0.20757072 5.5
2.5972729 34.459248 -0.39518976 7
2.531004 35.391399 -0.32476541 6
2.592345 35.477749 -0.29609001 5.4624977
2.4628334 41.640934 -0.32894829 7
2.4711607 43.116608 -0.34303254 5.5
2.470665 -9.481266 -0.0028046817 8
2.5479226 31.643835 -0.046671122 7
2.5923281 35.359634 -0.096321233 6.25
2.5698874 35.455791 -0.065151185 7
2.5786438 35.64716 -0.15686151 6
2.5309472 36.309807 -0.11712645 6.708333
2.5486572 36.90715 -0.087291114 6.6666665
2.5363429 37.31179 -0.073731087 7
2.4377208 40.678314 -0.086303376 8
2.5849295 40.986343 -0.032595746 8
2.4976299 43.118385 -0.029830378 7
2.4375882 -9.1886768 0.10187531 8
2.5439122 24.858246 0.14236572 8
2.4390666 31.642365 0.002795428 7.5
2.5917406 35.392193 0.13690826 8
2.5064263 35.517647 0.094669759 8.5473709
2.4938979 35.829769 0.17601302 9
2.4868717 36.320427 0.033411507 8
2.5899849 37.47052 0.10450093 7.5
2.5640392 40.973469 0.16345689 9
2.4738605 43.08992 0.18726251 8
2.457335 43.366257 0.16164988 9.333333
2.5345232 35.445976 0.31801614 8.5
2.4919865 36.442162 0.3782894 11
2.556181 36.665146 0.21009193 8.625
2.5856345 36.919647 0.29538143 10
2.440012 39.065281 0.23829111 9
2.5015912 43.073105 0.29315555 8.6000004
2.5721176 57.026367 0.2681196 8.5
2.528852 57.559158 0.36471745 9
2.522068 -9.244627 0.56731278 8.8258286
2.4829383 31.731255 0.57158315 13
2.5585985 31.817104 0.47061065 12
2.5752683 35.474182 0.53688884 10.625
2.5845418 35.603645 0.52842009 13.5
2.4503686 36.390175 0.42889395 10.5
2.476541 36.513412 0.50276029 12
2.5057611 37.4771 0.46095753 10
2.5685532 38.607899 0.52078104 10.055556
2.4014611 41.307785 0.44054684 10
2.5010242 43.109291 0.42905363 9
2.5887928 56.919998 0.44917816 9
2.5530491 31.77149 0.63396358 13.5
2.4404802 31.882799 0.67790496 14.28125
2.5787868 35.537724 0.65943778 13.5
2.5295601 35.811909 0.66568148 10.15625
2.5036535 36.59129 0.69515598 13
2.5469723 36.614346 0.62338865 11.90625
2.5286782 37.663471 0.62365144 11
2.4961271 43.117588 0.67451322 10
2.5599363 57.033165 0.65030003 9.5
2.5554588 57.440662 0.667961 9.5
2.5661328 57.847466 0.68557549 9.5
2.5922508 58.266373 0.72620666 9
2.4672241 -9.5538635 0.99426776 9
2.5275455 -9.1788034 0.99973834 9.6609907
2.5739517 24.909538 0.91211855 10.75
2.5164642 35.524338 0.84342825 10.302084
2.596487 35.808861 0.80742776 13
2.5447879 36.367142 0.95158494 14.333333
2.5426538 36.557674 0.84006155 14.166667
2.565649 38.453972 0.99981731 11.5
2.4107261 41.165726 0.99158382 12
2.4010119 41.285973 0.97872424 12
2.5110509 43.057388 0.93316764 11.5
2.5775318 56.511757 0.88770878 10
2.536211 56.9585 0.91079527 10
2.5899296 57.283531 0.85559237 9
2.5195017 57.529129 0.93949938 10
2.5200014 58.269352 0.90963823 9.875
2.5646544 58.578735 0.90551871 9.75
2.5435307 58.943607 0.89458311 9.916667
2.5466347 59.683418 0.89115417 10
2.4462409 -9.1997929 1.09295 10
2.4681435 37.526646 1.061008 14
2.5234685 43.129295 1.1779535 11.5
2.4170482 43.393002 1.0300293 14.25
2.574805 57.024296 1.022745 10.25
2.5424469 57.395412 1.0190272 10.25
2.4896088 57.732853 1.1725178 11
2.469059 59.038113 1.0214764 10
2.4553318 59.388657 1.1506143 9
2.4607639 59.460304 1.0371611 9.9814816
2.5964708 56.904839 1.3637059 11
2.5521355 57.100777 1.2646661 10
2.5308428 57.750076 1.2954532 10
2.4743915 58.706329 1.3538105 10.34375
2.4460914 59.03344 1.3701036 10.75
2.4823408 59.472961 1.3836094 10
2.5685208 -9.2690897 1.4915231 10.113499
2.4725213 -9.1833267 1.5712458 10.267578
2.5111401 24.712719 1.438236 9.125
2.5832863 55.983093 1.4632008 10
2.5608845 56.639587 1.4929768 10
2.5468075 56.97411 1.4268618 11.1875
2.528101 57.300453 1.5252883 10
2.5452735 57.446136 1.4364766 11.09375
2.5024624 57.719131 1.5468774 10
2.5459151 57.813297 1.4632521 10.59375
2.5611448 58.200691 1.434237 10.375
2.4990406 58.478184 1.4875249 11
2.4769754 59.023441 1.5322191 11
2.5804026 59.378773 1.4794201 10.962963
2.4928627 59.536945 1.5728607 11
2.4835515 -7.082201 1.7752653 15
2.5327787 24.515106 1.7750516 11
2.4814348 58.179119 1.7968478 10.5
2.545536 58.568497 1.762007 10
2.5309658 59.203728 1.6650416 10
2.586832 -7.4536767 1.8609062 13
2.5582147 -6.9984794 1.8723304 13
2.4963262 -6.6192007 1.8535519 11.75
2.5542121 -6.4464769 1.89871 15
2.5374386 24.606316 1.8596822 10.166667
2.5894651 39.054482 1.9085371 14
2.5592551 40.585754 1.9244726 15
2.546072 56.94146 1.8346999 12
2.5812237 57.086094 1.8165399 11.0625
2.5434813 57.483326 1.8643944 11.5625
2.5206571 57.751369 1.8731029 11.25
2.4834518 58.008091 1.9434134 12
2.4730244 59.006855 1.8555975 10.5
2.4785523 59.397064 1.9033344 10.833333
2.5411296 59.68079 1.8088646 12
2.4993453 -9.1832161 2.1036201 12.125
2.5375822 -6.1050701 2.1196303 13.5
2.5113268 -5.8102398 2.1808267 13
2.464201 37.676399 2.1740949 13
2.4293816 38.359585 2.153368 9
2.4724398 58.582306 2.0026002 12
2.445796 58.66206 2.0134079 12
2.4905658 59.441986 2.0121849 12
2.5007823 -5.8625278 2.2968073 14
2.4223566 24.677444 2.313869 10
2.425498 31.939251 2.3820488 13
2.4848175 37.907234 2.3375182 13
2.5692501 5.5257559 2.5333524 14
2.5687613 18.847012 2.556356 14
2.5547361 24.931366 2.4295332 13
2.4152966 31.83341 2.5194793 15
2.5719562 33.48745 2.527415 15
2.5350502 33.7981 2.5342784 15
2.5123796 34.020416 2.5436924 15
2.4227104 36.001617 2.4988062 14
2.4411526 36.289127 2.5434167 14
2.4742374 36.918743 2.5321217 15
2.4601233 37.09362 2.5523539 15
2.5478554 -4.3852148 2.6733232 11
2.5713444 -0.67676103 2.7572989 11
2.5448227 -0.58256686 2.7598348 11
2.4969416 3.0636654 2.6313374 13
2.4561453 3.2706711 2.7436826 13
2.4595079 5.1635866 2.7956672 13
2.5597641 11.159855 2.7861028 14.25
2.5405221 11.550651 2.7413926 14.5
2.4685049 11.688461 2.7265472 14
2.4299474 18.865231 2.6473308 15
2.5021949 19.509506 2.7211256 13.25
2.5286226 23.544426 2.6450067 13
2.5314579 24.415962 2.7967839 13
2.5665569 34.270905 2.6924415 12
2.5104837 35.334999 2.6800852 15
2.5258989 36.626579 2.6483428 14.166666
2.4097109 38.201218 2.7073395 15
2.5754852 55.873833 2.7618632 12
2.5734406 56.173782 2.7828567 12
2.4994521 -4.3031635 2.8208046 14
2.5949767 2.1640882 2.9045763 11.291667
2.5828876 2.5555158 2.8985949 11.5
2.5691195 3.098542 2.992162 14
2.4777565 4.6230955 2.8863287 10.5
2.4957943 5.1106777 2.9558911 10.625
2.5865796 5.7306886 2.9031863 13.75
2.472054 6.0520344 2.90557 14
2.4466662 6.6433973 2.9625502 13.5
2.4464965 6.9729195 2.9967952 13.25
2.4936268 7.3468809 2.9820557 13.166667
2.568399 8.5789309 2.960216 13.283854
2.4166651 10.215809 2.9862537 15
2.4054041 10.700408 2.9326313 15
2.5217445 10.954417 2.9999046 15
2.4979081 22.042635 2.9144416 14
2.5488424 24.589361 2.9867747 13.166667
2.5498619 56.572483 2.8144879 12
2.5786934 58.499512 2.8680778 11
2.4905162 7.798862 3.0362341 13.333333
2.4689829 8.2780838 3.0407782 13.125
2.5196695 8.847331 3.114265 13
2.4331872 11.178701 3.0608284 15
2.4232571 11.268011 3.0572233 15
2.4423742 30.260674 3.1121423 12
2.4417448 40.158787 3.1840608 14
2.5952358 2.3666639 3.2002549 14
2.5844996 2.6388626 3.2558286 14.25
2.5630875 3.0782218 3.2306306 14
2.5048699 5.0365 3.2412219 14
2.4814911 5.4622202 3.2390866 14
2.4959278 5.7297173 3.2467465 14
2.4616547 5.9052806 3.2851367 14
2.4618301 7.6838198 3.2423286 15
2.4428339 8.1213169 3.2646527 15
2.4754844 8.7282486 3.3260469 15
2.4357769 10.262097 3.2904201 13
2.4304423 10.678617 3.3440962 13
2.4203215 10.847443 3.3655097 13
2.5969734 11.273809 3.3103116 14.375
2.5115962 14.163687 3.2652836 13.166666
2.4648001 16.765833 3.3382652 13
2.4079185 16.846649 3.2500019 13
2.5835094 3.1637006 3.4206553 15
2.4089804 8.7547703 3.4591424 15
2.4309187 11.190776 3.4113362 13
2.6759927 -9.1294289 -0.62818718 6
2.7703342 -8.4459038 -0.62919188 5
2.6051531 -7.9617243 -0.64123446 5.5
2.7063379 -6.5079012 -0.68974602 5
2.6530075 -9.2245865 -0.54052031 6
2.6833816 -9.132452 -0.46406645 6
2.675081 -7.243052 -0.51621222 4
2.600971 -7.0475154 -0.57123727 6
2.7550206 -5.9232373 -0.5569641 5
2.7826312 -4.8628564 -0.53723037 4
2.6637723 -4.7545128 -0.49813935 3.5
2.7014241 -4.560277 -0.51009953 4.3333335
2.6184826 -4.0999417 -0.50559109 4.6666665
2.7864118 -3.8451855 -0.5956201 4
2.7036896 -3.7257495 -0.51313972 5
2.7340703 -3.4792039 -0.58519077 5.583333
2.6829109 -2.9097946 -0.46472159 3
2.6167936 -2.4383807 -0.43548495 1
2.6174674 -1.7925239 -0.45271266 1
2.7355881 -1.4888524 -0.43374857 0
2.796514 -1.3079789 -0.43492427 1
2.6356964 -1.1141673 -0.4429915 1
2.6476336 -0.98771048 -0.44036072 0.83333337
2.6585584 -0.68120849 -0.43744504 0.25
2.7524936 -0.45357257 -0.43352056 0
2.698925 -0.30249459 -0.42225093 0.083333336
2.7515051 0.12124561 -0.40784192 0
2.622324 0.20129386 -0.41094017 0.5
2.7714455 0.50483084 -0.40545797 0.5
2.6312504 0.64945203 -0.41466793 1
2.6379642 1.8377796 -0.40130574 5
2.695097 4.1404538 -0.41356468 5
2.636601 4.554616 -0.40291315 5
2.7354474 5.3308945 -0.40428323 5
2.6335487 11.021555 -0.48393071 7
2.675478 17.852974 -0.52193391 6
2.6116524 18.58374 -0.43774518 6
2.7639799 18.875578 -0.43780637 6
2.6791735 25.90066 -0.46831834 6
2.6305246 28.529066 -0.47435713 5
2.6733451 29.543682 -0.49604687 5
2.7129295 30.714596 -0.45605835 3.75
2.6584282 31.089237 -0.46882015 3.5
2.6044002 31.523046 -0.40607271 1
2.6309209 31.845879 -0.48476821 3
2.7596536 32.205734 -0.47011843 3
2.6385026 33.094948 -0.49420649 2.6666665
2.6696417 33.230385 -0.54132187 4
2.6332345 33.524826 -0.44985461 2
2.6179378 33.713104 -0.44719458 2
2.6149952 33.883308 -0.44933161 2
2.6215491 34.078636 -0.53894341 4.875
2.7163475 34.49741 -0.54214531 5
2.6436934 34.701569 -0.54592955 5
2.6811814 34.933907 -0.55105329 4.75
2.6467743 35.389851 -0.56002307 5
2.6259525 35.408871 -0.49507302 2
2.6789939 35.71151 -0.53980851 4.65625
2.6901512 35.890755 -0.43874151 4
2.7126989 36.957142 -0.43377751 4
2.6070232 41.556538 -0.41060209 6
2.653578 42.161888 -0.57541049 5
2.682796 -1.5013505 -0.39047366 0
2.7612097 0.19583817 -0.23988263 1
2.6746283 0.34178472 -0.39464507 0
2.6361914 0.54283565 -0.32022086 0.5
2.7051888 0.60567862 -0.24861012 1
