# .PCD v0.7 - Point Cloud Data file format
VERSION 0.7
FIELDS x y z intensity
SIZE 4 4 4 4
TYPE F F F F
COUNT 1 1 1 1
WIDTH 1509
HEIGHT 1
VIEWPOINT 0 0 0 1 0 0 0
POINTS 1509
DATA ascii
113.37154 18.269285 8.3827372 3
113.36233 18.27282 8.384346 3
113.36726 18.256546 8.383069 3
113.36726 18.256546 8.383069 3
113.3678 18.227509 8.3821249 3
113.3678 18.227509 8.3821249 3
113.3245 18.222889 8.3890505 3
113.37042 18.204805 8.3810167 3
113.35239 18.183006 8.3832884 3
113.34323 18.186661 8.3848944 3
113.33878 18.173986 8.3852262 3
113.34794 18.170315 8.3836212 3
113.35724 18.137543 8.3810778 3
113.35724 18.137543 8.3810778 3
113.35954 18.114763 8.3799744 3
113.34126 18.122234 8.3831825 3
113.37769 18.078053 8.3758345 3
113.35032 18.089371 8.3806438 3
113.33423 18.074154 8.3827477 3
113.35245 18.066555 8.3795433 3
113.3272 18.055189 8.3832493 3
113.3363 18.051361 8.3816481 3
113.35647 18.020828 8.377347 3
113.35647 18.020828 8.377347 3
113.34687 17.995466 8.3780193 3
113.34687 17.995466 8.3780193 3
113.34867 17.972553 8.3769245 3
113.31243 17.988228 8.3833237 3
113.33229 17.957502 8.3790293 3
113.34134 17.953556 8.3774309 3
113.34298 17.930613 8.376338 3
113.32401 17.909328 8.3786116 3
113.32401 17.909328 8.3786116 3
113.31024 17.848574 8.3785362 3
113.30126 17.852665 8.3801317 3
113.29099 17.827555 8.3808079 3
113.31789 17.815176 8.3760233 3
113.33799 17.760717 8.3706684 3
113.26399 17.712801 8.3805027 3
113.30093 17.649427 8.3719826 3
113.3192 17.617542 8.3677282 3
113.28376 17.634975 8.3740854 3
113.27302 17.586834 8.3736954 3
113.28185 17.582415 8.3721075 3
113.28215 17.559223 8.3710356 3
113.30859 17.545883 8.3662739 3
113.26476 17.544954 8.3731375 3
113.28839 17.50201 8.3674822 3
113.29717 17.497503 8.3658962 3
113.27087 17.487791 8.369585 3
113.30585 17.446287 8.3621807 3
113.2971 17.450848 8.3637657 3
113.29694 17.427485 8.3627014 3
113.29694 17.427485 8.3627014 3
113.30241 17.393217 8.3602304 3
113.28495 17.402462 8.3633966 3
113.29332 17.374434 8.3607531 3
113.28461 17.379082 8.3623352 3
113.27549 17.360353 8.3628569 3
113.28419 17.35568 8.3612757 3
113.29236 17.327553 8.3586359 3
113.27499 17.336956 8.3617983 3
113.27131 17.307301 8.3609142 3
113.27998 17.302567 8.3593349 3
113.27062 17.283861 8.3598585 3
113.28792 17.274338 8.3566999 3
113.27532 17.249376 8.3574009 3
113.26669 17.254173 8.3589792 3
113.26036 17.24173 8.3593292 3
113.2776 17.232103 8.3561726 3
113.27344 17.202341 8.3552971 3
113.27344 17.202341 8.3552971 3
113.26379 17.183668 8.3558245 3
113.26379 17.183668 8.3558245 3
113.25939 17.153912 8.3549519 3
113.26796 17.149004 8.3533754 3
113.24959 17.135286 8.3554792 3
113.25814 17.130352 8.3539047 3
113.24827 17.111734 8.3544331 3
113.25681 17.106775 8.3528585 3
113.23502 17.08696 8.3551378 3
113.25205 17.076973 8.3519907 3
113.24202 17.05838 8.3525209 3
113.25053 17.05336 8.3509474 3
113.19797 17.059999 8.3593397 3
113.24042 17.034775 8.3514786 3
113.22179 17.021292 8.3535805 3
113.22179 17.021292 8.3535805 3
113.21662 16.991535 8.3527164 3
113.23353 16.981327 8.349575 3
113.22321 16.962801 8.3501072 3
113.24008 16.952541 8.3469667 3
113.22968 16.933998 8.3475008 3
113.22968 16.933998 8.3475008 3
113.20239 16.925852 8.3511715 3
113.19398 16.93103 8.3527412 3
113.22195 16.880438 8.3456097 3
113.21355 16.885651 8.3471775 3
113.21132 16.861958 8.3461447 3
113.19457 16.872437 8.3492794 3
113.20899 16.838249 8.3451128 3
113.20063 16.843513 8.3466797 3
113.21492 16.809237 8.3425159 3
113.20657 16.814526 8.3440819 3
113.19213 16.789968 8.3447971 3
113.18381 16.79529 8.3463621 3
113.19784 16.760893 8.3422041 3
113.18123 16.771589 8.3453331 3
113.19145 16.730999 8.3413572 3
113.17489 16.74176 8.3444843 3
113.1758 16.724146 8.3432789 3
113.1758 16.724146 8.3432789 3
113.17749 16.688866 8.3408709 3
113.16924 16.694296 8.342433 3
113.16629 16.670544 8.3414097 3
113.14982 16.681456 8.344533 3
113.12663 16.662636 8.3468103 3
113.16769 16.635195 8.3390055 3
113.13993 16.627935 8.3426666 3
113.15632 16.616909 8.3395462 3
113.12036 16.615273 8.3447647 3
113.1459 16.563246 8.3376884 3
113.11327 16.585527 8.3439236 3
113.07159 16.359772 8.3351545 3
113.10313 16.300812 8.3265696 3
113.07897 16.300476 8.3300371 3
113.07833 16.264746 8.3276644 3
113.01598 16.193146 8.331583 3
113.01598 16.193146 8.331583 3
113.0268 16.157339 8.3274889 3
113.01112 16.169361 8.3305826 3
113.01753 16.127569 8.3266735 3
112.97772 16.13995 8.3332214 3
113.01674 16.109659 8.3254929 3
113.00724 16.079889 8.3246803 3
112.9942 16.062153 8.3252296 3
112.98643 16.068266 8.3267736 3
112.96899 16.044716 8.3275061 3
112.98672 16.002436 8.3218842 3
112.97128 16.014769 8.3249693 3
113.00425 15.960011 8.316267 3
113.01195 15.95382 8.3147249 3
112.98637 15.936401 8.3170052 3
112.98637 15.936401 8.3170052 3
112.98055 15.912501 8.3160172 3
112.98055 15.912501 8.3160172 3
112.97464 15.888597 8.3150311 3
112.97464 15.888597 8.3150311 3
112.9534 15.877271 8.3171244 3
112.94579 15.88356 8.3186636 3
112.95038 15.841242 8.314785 3
112.94278 15.847562 8.3163242 3
112.92146 15.836391 8.3184147 3
112.93661 15.823704 8.31534 3
112.90769 15.818943 8.3189678 3
112.94547 15.787115 8.3112831 3
112.93155 15.769598 8.3118382 3
112.92401 15.775987 8.3133755 3
112.9129 15.746311 8.3125792 3
112.92042 15.739893 8.3110437 3
112.90635 15.722459 8.3115997 3
112.92133 15.709576 8.3085299 3
112.91465 15.685677 8.3075533 3
112.88476 15.711533 8.3136902 3
112.90042 15.668265 8.3081102 3
112.89297 15.674751 8.3096437 3
112.88137 15.645121 8.3088531 3
112.86651 15.658153 8.3119192 3
112.8596 15.634354 8.3109426 3
112.86702 15.627815 8.3094101 3
112.85518 15.598244 8.3086214 3
112.84042 15.61138 8.3116846 3
112.85289 15.580175 8.3074617 3
112.86026 15.573593 8.3059311 3
112.81145 15.577074 8.3127956 3
112.78207 15.603523 8.3189163 3
112.81155 15.546721 8.3102922 3
112.77071 15.305895 8.2954826 3
112.74928 15.326385 8.3000536 3
112.65434 15.281326 8.3085642 3
112.61076 15.292527 8.3152018 3
112.55515 15.305478 8.3235369 3
112.58318 15.277591 8.3174591 3
112.53792 15.301613 8.3254232 3
112.52435 15.27299 8.3246374 3
112.52435 15.27299 8.3246374 3
112.48124 15.242397 8.3274355 3
112.43283 15.291834 8.3380527 3
112.41566 15.288313 8.3399315 3
112.36758 15.295624 8.3467169 3
112.42256 15.238792 8.3345928 3
112.35217 15.279936 8.3472567 3
112.35902 15.272812 8.3457422 3
112.33154 15.259093 8.3479767 3
112.33154 15.259093 8.3479767 3
112.3212 15.248706 8.3483353 3
112.3212 15.248706 8.3483353 3
112.30045 15.227997 8.3490543 3
112.29366 15.235189 8.3505669 3
112.27807 15.219734 8.3511047 3
112.27807 15.219734 8.3511047 3
112.23701 15.220926 8.3563547 3
112.23701 15.220926 8.3563547 3
112.22137 15.205648 8.3568897 3
112.22137 15.205648 8.3568897 3
112.19231 15.204981 8.360445 3
112.19231 15.204981 8.360445 3
112.15807 15.199423 8.3641739 3
112.15807 15.199423 8.3641739 3
112.12246 15.206373 8.3692303 3
112.12909 15.199045 8.3677225 3
112.08031 15.220839 8.3757915 3
112.09354 15.206144 8.372776 3
112.07786 15.191311 8.3733034 3
112.07127 15.198678 8.3748102 3
112.03062 15.201185 8.3800316 3
112.03062 15.201185 8.3800316 3
112.00184 15.201374 8.3835678 3
111.9953 15.208787 8.3850737 3
111.99265 15.179393 8.3825846 3
111.98614 15.186827 8.3840895 3
111.93141 15.217041 8.3936396 3
111.93791 15.209589 8.3921356 3
111.91699 15.190465 8.3928261 3
111.91699 15.190465 8.3928261 3
111.88837 15.191175 8.3963509 3
111.88837 15.191175 8.3963509 3
111.87379 15.164736 8.3955364 3
111.85455 15.187305 8.4000435 3
111.85686 15.162834 8.3973827 3
111.83126 15.192979 8.4033909 3
111.79754 15.189422 8.4070768 3
111.82938 15.151613 8.3995714 3
111.7818 15.175508 8.407588 3
111.7818 15.175508 8.407588 3
107.29815 11.368027 8.0832911 3
107.26106 11.370195 8.0853243 3
107.13936 11.244351 8.0738115 3
107.14122 11.234628 8.0724115 3
107.10718 11.268377 8.0784798 3
107.12189 11.190541 8.0672789 3
107.08251 11.203226 8.0707016 3
106.86224 11.084546 8.0635223 3
106.86378 11.074766 8.0621271 3
106.83661 11.07046 8.0625839 3
106.83813 11.060676 8.0611877 3
106.80479 11.035478 8.0590067 3
106.80183 11.055061 8.0617962 3
106.78368 11.05231 8.0620995 3
106.78659 11.032723 8.05931 3
106.75161 11.017521 8.0585203 3
106.75018 11.027321 8.0599146 3
106.72287 11.023368 8.0603666 3
106.72704 10.993956 8.0561857 3
106.69318 10.96918 8.0540009 3
106.69183 10.97899 8.0553942 3
106.67751 10.947029 8.0515156 3
106.67751 10.947029 8.0515156 3
106.64077 10.94208 8.0521164 3
106.64077 10.94208 8.0521164 3
106.61572 10.918823 8.0497808 3
106.61572 10.918823 8.0497808 3
106.58253 10.884649 8.0462036 3
106.58376 10.874824 8.0448122 3
106.55836 10.851726 8.0424776 3
106.56195 10.822236 8.0383053 3
106.53284 10.828702 8.040143 3
106.53284 10.828702 8.040143 3
106.5072 10.805752 8.0378084 3
106.51175 10.766401 8.0322475 3
106.46989 10.801506 8.0384026 3
106.47099 10.791665 8.0370121 3
106.44402 10.778735 8.0360661 3
106.44296 10.788579 8.0374556 3
106.41699 10.765883 8.03512 3
106.41595 10.775732 8.0365086 3
106.37852 10.771865 8.037097 3
106.37952 10.762012 8.0357084 3
106.35334 10.739499 8.0333719 3
106.35625 10.709931 8.0292072 3
106.31947 10.696453 8.0284061 3
106.31762 10.716172 8.0311804 3
106.29968 10.704561 8.0300856 3
106.29968 10.704561 8.0300856 3
106.2637 10.681445 8.0278931 3
106.26457 10.671579 8.0265064 3
106.23703 10.659266 8.0255556 3
106.23956 10.629664 8.0213966 3
106.19993 10.646269 8.0247488 3
106.20153 10.626528 8.0219774 3
106.18251 10.625017 8.0222664 3
106.18486 10.595399 8.0181103 3
106.14745 10.582612 8.0173025 3
106.14819 10.572737 8.0159168 3
106.1195 10.570653 8.0163498 3
106.1195 10.570653 8.0163498 3
106.08192 10.55813 8.0155392 3
106.08192 10.55813 8.0155392 3
106.05383 10.546367 8.0145836 3
106.05447 10.536484 8.0132008 3
106.02567 10.534689 8.013628 3
106.02814 10.49515 8.0080938 3
105.99921 10.493439 8.008522 3
105.99921 10.493439 8.008522 3
105.96119 10.481404 8.0077066 3
105.96119 10.481404 8.0077066 3
105.77934 13.407496 8.4172754 3
105.75815 13.426323 8.4203548 3
105.75669 13.455999 8.4245005 3
105.73662 13.455114 8.4248133 3
105.73617 13.465007 8.4261951 3
105.70902 13.47382 8.42799 3
105.7086 13.483715 8.4293718 3
105.68862 13.482979 8.4296808 3
105.68823 13.492876 8.4310617 3
105.66792 13.502102 8.4327497 3
105.66827 13.492204 8.4313688 3
105.64864 13.481694 8.430295 3
105.64798 13.501493 8.4330549 3
105.6214 13.500778 8.4334612 3
105.6214 13.500778 8.4334612 3
105.60225 13.470613 8.4296274 3
105.60146 13.500316 8.4337645 3
105.58222 13.470209 8.4299307 3
105.58199 13.480112 8.4313097 3
105.55532 13.479673 8.4317112 3
105.55589 13.449965 8.4275761 3
105.53564 13.459611 8.4292555 3
105.5358 13.449708 8.4278774 3
105.50914 13.439558 8.4268999 3
105.50975 13.390039 8.4200115 3
105.49022 13.310692 8.4092941 3
105.48888 10.279847 7.9882703 3
105.35982 10.141643 7.9707508 3
105.36008 10.181262 7.9762526 3
105.33012 10.171712 7.9752765 3
105.32993 10.151901 7.9725266 3
105.28999 10.152517 7.9730577 3
105.25938 10.113472 7.9679565 3
105.22911 10.104232 7.9669785 3
105.22911 10.104232 7.9669785 3
105.1573 10.046731 7.9596562 3
105.12704 10.047711 7.9600487 3
105.12704 10.047711 7.9600487 3
105.09741 10.068583 7.9631844 3
105.09547 10.009183 7.9549484 3
105.0665 10.04995 7.9608274 3
105.06509 10.010353 7.9553385 3
104.99294 9.9837561 7.9521265 3
104.96204 9.9753475 7.9511395 3
104.96068 9.9456615 7.9470258 3
104.91943 9.9379034 7.9461665 3
104.91943 9.9379034 7.9461665 3
104.88934 9.9495077 7.9479194 3
104.88831 9.9297218 7.945178 3
104.84468 9.8827076 7.9388342 3
104.84468 9.8827076 7.9388342 3
104.81274 9.8648748 7.9364743 3
104.81274 9.8648748 7.9364743 3
104.7813 9.857029 7.935483 3
104.77945 9.8273697 7.9313741 3
104.75046 9.859169 7.9358597 3
104.74851 9.8295135 7.9317517 3
104.70728 9.8325224 7.9322524 3
104.70591 9.8127575 7.9295149 3
104.67637 9.8348866 7.9326258 3
104.67565 9.8250084 7.9312572 3
104.64172 9.787962 7.926156 3
104.64247 9.7978392 7.9275241 3
104.6099 9.7806559 7.9251585 3
104.61145 9.8004065 7.9278946 3
104.57173 9.8237219 7.9311213 3
104.5701 9.803977 7.9283862 3
104.53825 9.796896 7.9273853 3
104.5391 9.8067675 7.9287524 3
104.50723 9.7997847 7.9277496 3
104.50548 9.7800503 7.9250154 3
104.47621 9.8027678 7.928113 3
104.48254 9.8718224 7.9376802 3
104.44241 9.8857861 7.9395247 3
104.4311 9.7674513 7.9231277 3
104.39317 9.7016602 7.9139242 3
104.3922 9.6918039 7.9125581 3
104.36086 9.6951408 7.9129176 3
104.35986 9.6852856 7.911552 3
104.33057 9.7084274 7.9146414 3
104.32954 9.698575 7.9132757 3
104.28671 9.6934566 7.912385 3
104.28349 9.6639099 7.908289 3
104.24657 9.6183586 7.9018188 3
104.24987 9.647893 7.9059138 3
104.20677 9.6431103 7.9050193 3
104.20677 9.6431103 7.9050193 3
104.1823 9.616188 7.9011602 3
104.1823 9.616188 7.9011602 3
104.13541 9.5821877 7.8961701 3
104.13302 9.562521 7.8934422 3
104.10007 9.5568247 7.8924274 3
104.10007 9.5568247 7.8924274 3
104.05141 9.5133696 7.8860731 3
104.05141 9.5133696 7.8860731 3
104.01694 9.4981136 7.8836927 3
104.01564 9.4882927 7.8823295 3
103.98502 9.5026073 7.8840375 3
103.97971 9.463336 7.8785858 3
103.93428 9.4498749 7.876318 3
103.93155 9.4302511 7.8735929 3
103.89803 9.4251995 7.8725724 3
103.89525 9.4055796 7.8698483 3
103.86589 9.4300556 7.8729129 3
103.86304 9.4104471 7.8701887 3
103.82941 9.4056129 7.8691654 3
103.83086 9.4154148 7.8705273 3
103.78796 9.4221888 7.8709755 3
103.78796 9.4221888 7.8709755 3
103.74973 9.3882275 7.8658648 3
103.7543 9.4175959 7.8699484 3
103.70517 9.3855524 7.8649468 3
103.70049 9.3562031 7.8608642 3
103.67577 9.3402739 7.8583632 3
103.67261 9.320714 7.8556418 3
103.63096 9.3379107 7.8574429 3
103.63096 9.3379107 7.8574429 3
103.59361 9.3142843 7.8536897 3
103.59031 9.2947445 7.8509693 3
103.54188 9.2732182 7.8473248 3
103.54188 9.2732182 7.8473248 3
103.51332 9.2381401 7.8421025 3
103.50479 9.1893444 7.8353038 3
103.4575 9.177948 7.8330183 3
103.45227 9.148694 7.8289399 3
103.41753 9.1451721 7.8279042 3
103.41575 9.1354237 7.8265452 3
103.37355 9.1536398 7.8283329 3
103.37355 9.1536398 7.8283329 3
103.35524 9.1774139 7.8312635 3
103.35524 9.1774139 7.8312635 3
103.30579 9.156949 7.8276105 3
103.30204 9.1374922 7.824894 3
103.26334 9.1150122 7.8211346 3
103.26524 9.1247358 7.8224926 3
103.227 9.1629744 7.8269844 3
103.22118 9.1338272 7.8229103 3
103.1972 9.1287279 7.8217602 3
103.19133 9.0995913 7.8176866 3
103.14518 9.0992813 7.8167424 3
103.14918 9.1186905 7.819458 3
103.108 9.0870562 7.8143353 3
103.108 9.0870562 7.8143353 3
103.0576 9.0677233 7.8106718 3
103.05554 9.058033 7.8093147 3
103.02439 9.0751629 7.8109756 3
103.01392 9.0267429 7.8041916 3
102.97846 9.0246391 7.8031373 3
102.96997 8.9859295 7.7977104 3
102.92752 9.0058975 7.7994685 3
102.92968 9.0155659 7.8008251 3
102.88755 8.9847479 7.7956986 3
102.88316 8.9654236 7.7929859 3
102.84965 8.9733973 7.793283 3
102.84965 8.9733973 7.793283 3
102.80266 8.9235792 7.7854438 3
102.79816 8.9042816 7.782732 3
102.76466 8.9634848 7.7899013 3
102.76009 8.9442015 7.7871904 3
102.71724 8.9140215 7.7820597 3
102.71724 8.9140215 7.7820597 3
102.68121 8.912879 7.7809944 3
102.68121 8.912879 7.7809944 3
102.63805 8.8829937 7.7758617 3
102.63093 8.8541346 7.7717972 3
102.58097 8.8466015 7.7694693 3
102.58338 8.8562126 7.7708235 3
102.55441 8.8843107 7.7738161 3
102.55441 8.8843107 7.7738161 3
102.50443 8.8771257 7.7714815 3
102.50939 8.8963127 7.7741899 3
102.4819 8.8832035 7.7716675 3
102.47441 8.8544416 7.7676048 3
102.42928 8.8667688 7.7679744 3
102.4242 8.8476114 7.7652669 3
102.37751 8.8091431 7.7587729 3
102.37238 8.7900009 7.7560654 3
102.32439 8.7931833 7.7550764 3
102.31918 8.7740641 7.7523699 3
102.29645 8.7805223 7.7525506 3
102.30169 8.799633 7.7552571 3
102.25101 8.7935762 7.7529092 3
102.25101 8.7935762 7.7529092 3
102.21697 8.8034897 7.7531757 3
102.20891 8.7748795 7.7491169 3
102.158 8.7692404 7.7467642 3
102.15255 8.7501907 7.7440586 3
102.11562 8.750885 7.7429686 3
102.10736 8.7223339 7.7389107 3
102.06754 8.713666 7.7364669 3
102.06754 8.713666 7.7364669 3
102.0162 8.7086601 7.7341065 3
102.0162 8.7086601 7.7341065 3
101.97906 8.7098017 7.7330103 3
101.97336 8.6908236 7.7303066 3
101.93613 8.6921053 7.7292085 3
101.93613 8.6921053 7.7292085 3
101.89307 8.6745653 7.7254057 3
101.88726 8.6556196 7.722702 3
101.85016 8.6987286 7.7270899 3
101.84721 8.6892691 7.725738 3
101.80692 8.6815138 7.7232823 3
101.798 8.6531591 7.7192283 3
101.74554 8.6077995 7.7113667 3
101.74854 8.6172428 7.7127175 3
101.70186 8.5909576 7.7075567 3
101.69277 8.5626545 7.7035036 3
101.63728 8.5499086 7.6997738 3
101.63421 8.5404854 7.6984224 3
101.59631 8.5428705 7.6973119 3
101.58704 8.5146332 7.6932597 3
101.54591 8.5077696 7.6907964 3
101.53342 8.4701548 7.6853938 3
101.49527 8.4728708 7.6842799 3
101.49211 8.4634752 7.6829295 3
101.43585 8.4516678 7.6791906 3
101.4231 8.4141417 7.673789 3
101.39114 8.435956 7.6753712 3
101.38471 8.4172115 7.6726708 3
101.34954 8.4297752 7.6729002 3
101.33656 8.3923264 7.6675005 3
101.29805 8.3956814 7.666378 3
101.29805 8.3956814 7.666378 3
101.25108 8.4128113 7.6666775 3
101.24777 8.40347 7.665328 3
101.21256 8.4164524 7.6655502 3
101.20255 8.3884649 7.6615014 3
101.1572 8.3736248 7.6576734 3
101.14711 8.345665 7.6536245 3
101.11851 8.3775711 7.6565418 3
101.11851 8.3775711 7.6565418 3
101.06118 8.3675451 7.6527815 3
101.05432 8.3489532 7.6500826 3
101.01203 8.343955 7.6475973 3
101.01203 8.343955 7.6475973 3
100.95437 8.3344345 7.6438313 3
100.95087 8.3251629 7.6424823 3
100.91191 8.3297911 7.6413412 3
100.90839 8.3205271 7.6399922 3
100.86938 8.3252964 7.6388488 3
100.86583 8.3160467 7.6375003 3
100.81496 8.3257008 7.6364222 3
100.81137 8.3164654 7.6350737 3
100.75421 8.275424 7.6271839 3
100.7506 8.2661972 7.6258349 3
100.70769 8.26227 7.6233363 3
100.70769 8.26227 7.6233363 3
100.67206 8.2769041 7.6235323 3
100.66105 8.2492905 7.6194878 3
100.60238 8.2414465 7.6157017 3
100.59126 8.2138767 7.6116571 3
100.53681 8.1829729 7.6051083 3
100.52561 8.1554365 7.6010642 3
100.5047 8.2072935 7.6066446 3
100.50094 8.1981287 7.6052966 3
100.46133 8.2042341 7.6041355 3
100.45753 8.1950798 7.602787 3
100.41359 8.2247734 7.6043797 3
100.40977 8.2156343 7.6030316 3
100.36243 8.2037888 7.5991693 3
100.35088 8.1764021 7.5951266 3
100.31111 8.1830044 7.5939569 3
100.31111 8.1830044 7.5939569 3
100.25571 8.1533194 7.5873966 3
100.24789 8.1351061 7.5847015 3
100.19594 8.1474228 7.5835853 3
100.20382 8.1656027 7.5862799 3
100.15599 8.154541 7.582408 3
100.1282 8.0909901 7.5729785 3
100.08006 8.0801897 7.5691061 3
100.07207 8.0620556 7.566412 3
100.04388 8.0967398 7.569272 3
100.03986 8.0876846 7.5679245 3
99.979477 8.0828218 7.5641012 3
99.963234 8.0466661 7.5587139 3
99.922867 8.0545444 7.5575275 3
99.922867 8.0545444 7.5575275 3
99.862167 8.0502434 7.5536971 3
99.85392 8.0322237 7.5510035 3
99.809296 8.0314655 7.5484648 3
99.796844 8.0044718 7.5444245 3
99.739555 7.9769583 7.5378437 3
99.743729 7.9859428 7.5391908 3
99.69886 7.9855719 7.5366478 3
99.69886 7.9855719 7.5366478 3
99.654488 8.0181694 7.5381899 3
99.637535 7.9823446 7.5328045 3
99.596794 7.9913015 7.5316019 3
99.601059 8.0002441 7.532948 3
99.594688 8.0807705 7.5425138 3
99.577522 8.0450468 7.5371284 3
99.503174 8.0157022 7.5292344 3
99.498848 8.0067892 7.5278883 3
99.466805 8.0340137 7.5293694 3
99.453735 8.0073118 7.525331 3
99.408577 8.0079985 7.5227714 3
99.395432 7.9813347 7.518733 3
99.350136 7.9822264 7.5161715 3
99.341324 7.9644775 7.5134783 3
99.288185 7.9807177 7.5123019 3
99.297073 7.9984322 7.5149937 3
99.265114 8.0262156 7.5164642 3
99.260651 8.0173702 7.5151176 3
99.206291 8.0011044 7.5098553 3
99.188301 7.9657831 7.5044723 3
99.147255 7.9762392 7.5032444 3
99.147255 7.9762392 7.5032444 3
99.075821 7.9581337 7.4966698 3
99.048477 7.9053421 7.488595 3
99.002602 7.9074688 7.4860153 3
99.002602 7.9074688 7.4860153 3
98.921349 7.8725786 7.4767423 3
98.898254 7.8287468 7.4700136 3
98.873627 7.8421688 7.4700847 3
98.878258 7.8509254 7.4714303 3
98.833786 7.8866425 7.4729156 3
98.819771 7.8604259 7.4688787 3
98.787628 7.8895445 7.4703255 3
98.773537 7.8633718 7.4662886 3
98.719711 7.8820696 7.4650731 3
98.710243 7.8646574 7.4623814 3
98.661934 7.8349819 7.4557171 3
98.661934 7.8349819 7.4557171 3
98.612732 7.8628397 7.4558401 3
98.612732 7.8628397 7.4558401 3
98.595139 7.918519 7.4613123 3
98.595139 7.918519 7.4613123 3
98.536575 7.9293633 7.4587355 3
98.488129 7.8429222 7.445281 3
98.422012 7.8125525 7.4372902 3
98.417145 7.8039217 7.4359446 3
98.380135 7.8255434 7.4360247 3
98.365448 7.7997007 7.4319887 3
98.286514 7.7771921 7.4240184 3
98.271721 7.7514067 7.419982 3
98.219688 7.7477264 7.4160194 3
98.219688 7.7477264 7.4160194 3
98.187492 7.7785139 7.4174356 3
98.152618 7.7185545 7.4080172 3
98.115356 7.7409801 7.4080849 3
98.140396 7.7837334 7.4148126 3
98.075859 7.7881174 7.410862 3
98.080902 7.796649 7.4122076 3
98.028671 7.7937489 7.4082317 3
98.033737 7.8022652 7.4095774 3
97.991631 7.8165541 7.4082904 3
97.976349 7.7910547 7.4042544 3
97.92395 7.7885628 7.4002733 3
97.934189 7.8055325 7.4029641 3
97.864258 7.8024912 7.3976512 3
97.8591 7.7940254 7.396306 3
97.791008 7.766654 7.3882818 3
97.801361 7.7835531 7.3909731 3
97.743484 7.7733145 7.3856368 3
97.743484 7.7733145 7.3856368 3
97.680244 7.754899 7.378952 3
97.669785 7.7380629 7.3762612 3
97.60968 7.7531567 7.3736224 3
97.583374 7.7111721 7.3668947 3
97.561943 7.7604742 7.3709669 3
97.540802 7.7269497 7.3655849 3
97.482323 7.7177773 7.3602357 3
97.466385 7.6926823 7.3561993 3
97.397034 7.667099 7.3481555 3
97.370346 7.625351 7.3414278 3
97.304199 7.6334667 7.3374257 3
97.304199 7.6334667 7.3374257 3
97.282867 7.6834116 7.3414841 3
97.288261 7.6917238 7.3428297 3
97.254768 7.7500324 7.3468924 3
97.243912 7.7334509 7.3442001 3
97.213646 7.7419558 7.3428659 3
97.197319 7.7171164 7.338829 3
97.136688 7.7344065 7.3361549 3
97.13121 7.7261477 7.3348093 3
97.08297 7.7352037 7.3321266 3
97.071968 7.7187204 7.3294353 3
97.000168 7.7201595 7.3240604 3
96.983566 7.6954985 7.3200231 3
96.91288 7.672267 7.3119502 3
96.901764 7.6558619 7.3092585 3
96.886642 7.7148399 7.3146405 3
96.869896 7.6902809 7.3106031 3
96.792038 7.684597 7.3038669 3
96.775192 7.6601038 7.2998295 3
96.720833 7.6622829 7.295783 3
96.726471 7.6704302 7.2971287 3
96.677734 7.6809378 7.294425 3
96.666412 7.6646767 7.2917328 3
96.623299 7.6835146 7.2903719 3
96.60054 7.6510611 7.2849874 3
96.556328 7.6953793 7.2863083 3
96.539162 7.6711063 7.28227 3
96.484528 7.6742239 7.2782087 3
96.461548 7.6419296 7.2728248 3
96.383667 7.6131096 7.2633758 3
96.377899 7.6050549 7.2620296 3
96.340294 7.6328821 7.2619996 3
96.317123 7.6007261 7.2566156 3
96.266991 7.6380997 7.2565703 3
96.255341 7.6220675 7.2538772 3
96.194389 7.6182766 7.248455 3
96.176842 7.5942802 7.2444162 3
96.133339 7.6147375 7.2430286 3
96.115723 7.5907946 7.2389898 3
96.072182 7.611455 7.2375984 3
96.060387 7.5955286 7.2349062 3
96.004303 7.6260042 7.2334957 3
95.986519 7.6021852 7.2294559 3
95.937004 7.6153603 7.2267113 3
95.931046 7.6074381 7.2253637 3
95.887482 7.6287193 7.2239618 3
95.881508 7.6208162 7.2226157 3
95.843948 7.6501532 7.2225566 3
95.837952 7.6422672 7.2212095 3
95.76989 7.6580009 7.2170863 3
95.739738 7.6186895 7.2103519 3
95.684013 7.6249256 7.2062449 3
95.671906 7.6092367 7.2035513 3
95.616089 7.6157331 7.19944 3
95.610008 7.6079073 7.1980929 3
95.54158 7.6247463 7.1939526 3
95.523254 7.6013393 7.1899114 3
95.467247 7.6084146 7.185791 3
95.479507 7.6239843 7.1884851 3
95.429657 7.6390104 7.18571 3
95.417343 7.6234818 7.1830149 3
95.361267 7.63099 7.1788874 3
95.348907 7.6154976 7.1761928 3
95.298836 7.6567974 7.176074 3
95.280212 7.6336317 7.1720314 3
95.230225 7.6493912 7.1692429 3
95.192833 7.6031704 7.1611576 3
95.105133 7.5990334 7.1529408 3
95.086349 7.5759993 7.1488981 3
95.036087 7.592432 7.1461 3
95.036087 7.592432 7.1461 3
94.979523 7.6014156 7.1419506 3
94.985832 7.6090565 7.1432981 3
94.910255 7.5953827 7.1351013 3
94.897598 7.5801392 7.1324053 3
94.821938 7.5928822 7.1268606 3
94.821938 7.5928822 7.1268606 3
94.77153 7.6102819 7.1240463 3
94.733223 7.5648165 7.1159573 3
94.695503 7.597641 7.1158352 3
94.689095 7.5900831 7.1144862 3
94.638596 7.6079655 7.1116638 3
94.62574 7.592886 7.1089678 3
94.556198 7.6145744 7.1047487 3
94.530365 7.5845203 7.0993538 3
94.505669 7.6329489 7.1019173 3
94.479736 7.602973 7.0965223 3
94.435631 7.6290941 7.0950356 3
94.422623 7.6141453 7.0923386 3
94.358948 7.6180935 7.0868006 3
94.352417 7.6106386 7.0854521 3
94.276108 7.6262579 7.0798616 3
94.282661 7.633687 7.0812106 3
94.258308 7.6826992 7.0837588 3
94.238571 7.6604719 7.079711 3
94.194542 7.6874113 7.078208 3
94.187943 7.6800194 7.0768585 3
94.137321 7.6997633 7.0740032 3
94.110832 7.6702833 7.0686054 3
94.034378 7.6872272 7.0629911 3
94.027725 7.679882 7.0616417 3
93.963654 7.6855574 7.0560765 3
93.923607 7.6416178 7.0479784 3
93.859337 7.647687 7.042407 3
93.839249 7.6257782 7.0383577 3
93.795959 7.6804647 7.039474 3
93.78923 7.6731892 7.0381236 3
93.731598 7.6871119 7.0338936 3
93.607292 7.6554365 7.0187941 3
93.450691 7.6417713 7.0022049 3
93.342789 7.7062044 6.9976854 3
93.284828 7.7218885 6.9934254 3
93.243492 7.6791658 6.9853191 3
93.063667 7.7476931 6.9737892 3
92.935745 7.6941881 6.9559937 3
97.183914 12.022499 7.7831554 3
97.173546 12.062034 7.7857246 3
97.180573 12.069022 7.787077 3
97.148216 12.10313 7.7868938 3
97.162315 12.117052 7.7895985 3
97.131119 12.135741 7.7881064 3
97.131119 12.135741 7.7881064 3
97.10704 12.161465 7.7879648 3
97.10704 12.161465 7.7879648 3
97.061691 12.166571 7.783762 3
97.061691 12.166571 7.783762 3
97.029732 12.20117 7.7835655 3
96.994026 12.166826 7.7768002 3
92.358284 7.7832308 6.9051809 3
92.299675 7.8027878 6.9008555 3
92.285316 7.7891359 6.8981495 3
92.248276 7.8293905 6.8978801 3
92.248276 7.8293905 6.8978801 3
92.177399 7.862916 6.8934546 3
92.170158 7.8561401 6.8921003 3
92.118828 7.8832369 6.8891149 3
92.082581 7.8494673 6.8823452 3
92.016647 7.8634109 6.876646 3
92.002106 7.849946 6.8739371 3
91.916512 7.8712759 6.8667817 3
91.887329 7.8444614 6.8613644 3
91.835831 7.8725615 6.8583612 3
91.828506 7.865881 6.857007 3
91.735405 7.8815145 6.8484802 3
91.750092 7.8948183 6.8511901 3
91.718239 7.9160891 6.8496332 3
91.718239 7.9160891 6.8496332 3
91.706306 8.0051241 6.8560009 3
91.691544 7.9919052 6.8532906 3
91.595894 7.9812803 6.8421378 3
91.573685 7.9615221 6.8380713 3
91.51017 8.0049896 6.834939 3
91.487885 7.9853191 6.8308716 3
91.46357 8.0137587 6.830658 3
91.46357 8.0137587 6.830658 3
91.385246 8.0447369 6.8248024 3
91.355377 8.0186911 6.8193779 3
91.29657 8.0423002 6.8149786 3
91.281593 8.0293217 6.8122663 3
91.210663 8.0677052 6.8077507 3
91.210663 8.0677052 6.8077507 3
91.144333 8.085474 6.8019838 3
91.091614 8.0404158 6.7924867 3
91.032684 8.0650492 6.7880702 3
91.017578 8.0522203 6.7853565 3
90.981331 8.096323 6.785006 3
90.966194 8.083539 6.7822919 3
90.902832 8.1298504 6.7791042 3
90.887634 8.1171274 6.7763891 3
90.828743 8.1426086 6.7719564 3
90.805901 8.1235905 6.7678833 3
90.746971 8.1493883 6.7634459 3
90.724075 8.1304407 6.7593718 3
90.6651 8.1565523 6.7549286 3
90.642151 8.1376734 6.750854 3
90.563484 8.172967 6.7449207 3
90.525101 8.141655 6.7381282 3
90.466034 8.1685305 6.7336717 3
90.442947 8.1498108 6.7295961 3
90.399284 8.1894379 6.7278509 3
90.391571 8.1832209 6.7264919 3
90.320587 8.2260227 6.7218943 3
90.289627 8.2012777 6.7164574 3
90.246071 8.2414255 6.7147017 3
90.23056 8.2290993 6.7119827 3
90.194847 8.275588 6.7115822 3
90.179291 8.2633104 6.7088633 3
90.135887 8.3038378 6.7070985 3
90.1203 8.291604 6.7043791 3
90.072968 8.3540602 6.7038321 3
90.08078 8.3601465 6.7051926 3
90.037628 8.4010286 6.7034183 3
89.998444 8.3707228 6.6966162 3
89.912125 8.4035225 6.6892538 3
89.8964 8.3914614 6.686533 3
89.857155 8.4110899 6.6835275 3
89.841408 8.3990593 6.6808062 3
89.778709 8.4506788 6.6775112 3
89.715546 8.4028139 6.6666222 3
89.680351 8.4508629 6.6661859 3
89.66452 8.4389448 6.6634631 3
92.768524 11.536011 7.2524948 3
89.441528 10.157889 6.7574186 3
89.386459 10.190952 6.7528009 3
89.386459 10.190952 6.7528009 3
89.313126 10.235413 6.7466359 3
89.37188 10.272229 6.7562199 3
89.39415 10.331203 6.7627211 3
89.402557 10.336446 6.7640905 3
89.388649 10.417514 6.7675066 3
89.439209 10.44877 6.7757244 3
89.435455 10.513279 6.7793131 3
89.435455 10.513279 6.7793131 3
89.405434 10.583747 6.7799854 3
89.422356 10.594047 6.7827253 3
89.420189 10.636981 6.7851157 3
89.445602 10.652381 6.7892275 3
89.399185 10.712564 6.7871523 3
89.416168 10.722763 6.7898941 3
89.370895 10.761654 6.7866197 3
89.362389 10.756581 6.7852478 3
89.341934 10.832283 6.7872763 3
89.367523 10.847404 6.7913914 3
89.340378 10.875165 6.7896605 3
89.323303 10.865119 6.7869158 3
89.286217 10.930904 6.7861924 3
89.277664 10.925918 6.7848196 3
89.250015 10.975383 6.7842731 3
89.224304 10.960492 6.7801552 3
89.170425 11.016823 6.7766728 3
89.144646 11.002037 6.7725534 3
89.056984 11.017584 6.7623825 3
89.005341 10.988164 6.7541418 3
88.900291 10.994556 6.7412128 3
88.814087 10.945783 6.7274752 3
88.69957 10.970034 6.7143412 3
88.665009 10.950662 6.7088442 3
88.68071 11.026063 6.7151346 3
88.646088 11.006794 6.7096367 3
88.627357 11.06296 6.7104263 3
88.558006 11.02463 6.6994267 3
80.084381 14.246668 5.6563101 3
80.062981 14.295822 5.6541138 3
80.072693 18.0592 5.6789083 3
80.098083 18.113577 5.6823368 3
80.167053 18.120087 5.6923752 3
82.982819 18.547165 6.1012278 3
83.170143 18.563526 6.1284966 3
83.380814 18.672434 6.1585474 3
83.637238 18.6938 6.1958818 3
85.700714 18.987432 6.4953818 3
85.838852 18.998112 6.5154991 3
85.903336 19.083363 6.5242047 3
86.002029 19.090595 6.5385809 3
86.077797 19.155798 6.5490746 3
86.215996 19.16551 6.5692101 3
86.499344 19.243788 6.60993 3
86.677071 19.255745 6.635828 3
86.921234 19.32925 6.6708298 3
87.069366 19.33877 6.6924195 3
87.184631 19.421202 6.7084179 3
87.401939 19.434298 6.740098 3
87.518295 19.496559 6.7564387 3
87.577576 19.499952 6.7650814 3
87.663872 19.577957 6.7768021 3
87.98008 19.594797 6.8229218 3
88.799164 19.672672 6.9419641 3
88.996819 19.682804 6.9707956 3
89.3013 19.764894 7.0143557 3
89.449562 19.7719 7.0359907 3
89.537323 19.825191 7.0481348 3
90.534836 19.915487 7.1930809 3
90.663368 19.92079 7.2118454 3
90.810898 19.972191 7.2327256 3
91.028435 19.980515 7.264493 3
91.255104 20.047823 7.2967072 3
91.452888 20.054602 7.3256006 3
91.798653 20.108795 7.3754449 3
92.095352 20.118073 7.4188018 3
92.1446 20.160919 7.4253259 3
92.223724 20.163157 7.436892 3
92.421478 20.209223 7.4651194 3
92.550072 20.212475 7.4839211 3
92.540291 20.26572 7.4815645 3
92.639214 20.267826 7.4960346 3
92.807625 20.310732 7.5199647 3
92.540512 20.305845 7.4808798 3
92.540855 20.34597 7.4801931 3
92.560638 20.346273 7.4830894 3
92.610573 20.386951 7.4896469 3
92.600677 20.386829 7.4881978 3
92.829041 20.44199 7.5206199 3
92.759789 20.441414 7.5104742 3
92.918839 20.481735 7.5329957 3
92.988098 20.482103 7.5431452 3
92.910118 20.53373 7.5306497 3
92.761711 20.533531 7.5088882 3
93.089233 20.572468 7.5560999 3
92.950714 20.572697 7.5357814 3
93.07058 20.611059 7.5525312 3
93.090363 20.610968 7.5554352 3
92.864502 20.664268 7.5211372 3
92.933754 20.66367 7.5313053 3
92.974251 20.68923 7.5366664 3
92.736816 20.691757 7.5017948 3
92.81797 20.743349 7.512506 3
92.788292 20.743784 7.5081449 3
92.908646 20.781103 7.5249085 3
93.106491 20.777617 7.5539947 3
92.990143 20.831465 7.5356388 3
92.980255 20.831678 7.5341845 3
93.011185 20.856874 7.5380974 3
92.93206 20.858742 7.526454 3
92.92485 20.911001 7.524086 3
92.974297 20.909636 7.5313673 3
92.986328 20.9482 7.5321407 3
93.144547 20.943357 7.5554485 3
93.167328 20.993818 7.5574641 3
93.276093 20.990055 7.5734963 3
93.367447 21.024677 7.5859499 3
93.52562 21.01873 7.6092787 3
93.310616 21.064783 7.5765333 3
93.14257 21.071606 7.5517373 3
93.164963 21.109118 7.5539761 3
93.224258 21.106533 7.5627317 3
93.227921 21.157373 7.5618296 3
93.277328 21.155022 7.5691299 3
93.211037 21.196499 7.5582318 3
93.299957 21.191999 7.5713768 3
93.263428 21.232027 7.5648575 3
93.263428 21.232027 7.5648575 3
93.236893 21.271729 7.5597949 3
93.276405 21.269491 7.5656414 3
93.320206 21.317745 7.5705862 3
93.349831 21.31595 7.5749736 3
93.323563 21.355604 7.5699086 3
93.432159 21.348696 7.5860019 3
93.386253 21.389509 7.578011 3
93.563919 21.377674 7.6043563 3
93.568657 21.427185 7.6034679 3
93.529182 21.429972 7.59761 3
93.592064 21.462856 7.6057301 3
93.641388 21.459223 7.6130543 3
93.369003 21.517298 7.5713553 3
93.615578 21.4984 7.6079931 3
93.343369 21.557381 7.5662751 3
93.39267 21.553453 7.5736055 3
93.496681 21.595413 7.5873652 3
93.516396 21.593763 7.5902987 3
93.471298 21.635326 7.5822854 3
93.451591 21.637035 7.57935 3
93.516464 21.681654 7.5872507 3
93.519417 21.70652 7.5867977 3
93.584534 21.750521 7.594707 3
93.584534 21.750521 7.594707 3
93.608864 21.785654 7.5969691 3
93.677757 21.77878 7.6072593 3
93.64473 21.831957 7.6004772 3
93.64473 21.831957 7.6004772 3
93.638138 21.857615 7.5985546 3
93.598793 21.861778 7.5926695 3
94.195374 21.84638 7.680079 3
93.772598 21.89283 7.616785 3
93.836639 21.922718 7.6249475 3
93.659721 21.94269 7.5984416 3
93.666702 21.991869 7.5975342 3
93.7453 21.982677 7.6093211 3
93.788132 22.002428 7.6147647 3
93.74884 22.007101 7.6088691 3
93.883698 22.040232 7.6271343 3
93.648094 22.069216 7.5917459 3
93.702759 22.099958 7.5984359 3
93.751823 22.093775 7.6058116 3
93.69075 22.151531 7.5945721 3
93.877098 22.127285 7.6226144 3
93.871124 22.152748 7.6206884 3
93.831909 22.157932 7.6147833 3
99.545677 21.495302 8.4709625 3
99.555458 21.49387 8.4724417 3
99.549469 21.514603 8.4706278 3
99.569031 21.511679 8.473587 3
99.593719 21.534321 8.4761038 3
99.623047 21.529818 8.480545 3
99.635414 21.541016 8.4818048 3
99.684273 21.533415 8.4892092 3
99.689499 21.558605 8.4887714 3
99.757858 21.547689 8.4991436 3
99.771568 21.564779 8.5003014 3
99.742287 21.569544 8.4958544 3
99.786667 21.588001 8.5013523 3
99.825691 21.581491 8.5072842 3
99.838135 21.592167 8.5085535 3
99.818634 21.595459 8.5055866 3
99.911797 21.604956 8.5185146 3
100.00924 21.588099 8.5333576 3
99.97435 21.612894 8.5271053 3
99.964607 21.614609 8.5256205 3
99.960419 21.640459 8.523715 3
99.960419 21.640459 8.523715 3
100.05078 21.636559 8.5368786 3
100.07997 21.631239 8.541337 3
100.09529 21.653069 8.5424118 3
100.09529 21.653069 8.5424118 3
100.10927 21.668919 8.5435896 3
100.1287 21.665236 8.5465641 3
100.12473 21.690571 8.5446653 3
100.13443 21.68869 8.546154 3
100.16645 21.694714 8.5504141 3
100.18586 21.690916 8.5533915 3
100.1917 21.714149 8.5529842 3
100.20139 21.712212 8.5544739 3
100.21552 21.727629 8.5556583 3
100.19613 21.731562 8.5526772 3
100.21181 21.752758 8.5537596 3
100.21181 21.752758 8.5537596 3
100.20669 21.772152 8.5519609 3
100.23572 21.766048 8.5564365 3
100.25964 21.779211 8.5591145 3
100.24998 21.781275 8.5576229 3
100.27394 21.79434 8.5603027 3
100.25462 21.798523 8.5573168 3
100.04845 21.868389 8.5240479 3
100.25122 21.823639 8.5554152 3
100.27528 21.836571 8.5580969 3
100.25598 21.840891 8.5551081 3
100.27044 21.855942 8.5562963 3
100.25115 21.860319 8.5533066 3
100.27692 21.878874 8.5558863 3
100.28656 21.876646 8.5573826 3
100.29148 21.893801 8.5570755 3
100.31073 21.88929 8.5600681 3
100.32531 21.904089 8.5612593 3
100.32531 21.904089 8.5612593 3
100.30148 21.928076 8.5564604 3
100.25341 21.939644 8.5489721 3
100.22182 21.972065 8.5425634 3
100.25063 21.96501 8.5470591 3
100.22702 21.989426 8.5422497 3
100.25581 21.982283 8.5467472 3
100.26105 21.999544 8.5464344 3
100.2994 21.989906 8.552433 3
100.31424 22.004602 8.5536222 3
100.29507 22.009478 8.550622 3
100.30217 22.032341 8.5502071 3
100.30217 22.032341 8.5502071 3
100.29799 22.051975 8.5483932 3
100.23104 22.069511 8.5378819 3
100.25565 22.081791 8.5405693 3
100.32255 22.064056 8.5510855 3
100.30892 22.086256 8.5477676 3
100.25163 22.101629 8.5387497 3
100.26864 22.122078 8.5398312 3
100.39263 22.088276 8.5593805 3
100.42677 22.09726 8.5635843 3
100.40771 22.102518 8.5605755 3
100.43234 22.114033 8.5632772 3
100.43234 22.114033 8.5632772 3
100.3904 22.14422 8.5554419 3
100.36185 22.152277 8.5509243 3
100.40753 22.164007 8.5565338 3
100.44554 22.153112 8.5625591 3
100.4133 22.180845 8.5562229 3
100.38482 22.189102 8.5517015 3
100.35272 22.217133 8.5453577 3
100.37169 22.211573 8.5483732 3
100.37959 22.234169 8.5479536 3
100.37959 22.234169 8.5479536 3
100.35717 22.25964 8.5431108 3
100.2057 22.305189 8.5189629 3
100.19507 22.334225 8.5155067 3
100.28962 22.30538 8.5306072 3
100.33154 22.305239 8.5364351 3
100.341 22.302336 8.5379448 3
100.37756 22.316248 8.5420532 3
100.44363 22.29566 8.5526323 3
100.44979 22.31241 8.5523195 3
100.45922 22.309441 8.5538311 3
100.44867 22.337727 8.5503883 3
100.42984 22.34374 8.5473623 3
100.42463 22.357965 8.5456381 3
100.40581 22.364017 8.5426121 3
100.33913 22.411013 8.5300751 3
100.40491 22.38957 8.5406742 3
100.43952 22.397175 8.544899 3
100.44891 22.394083 8.5464134 3
100.44598 22.413952 8.5445814 3
100.46475 22.407713 8.5476122 3
100.46188 22.427563 8.5457792 3
100.46188 22.427563 8.5457792 3
100.47063 22.449844 8.5453568 3
100.47063 22.449844 8.5453568 3
100.4679 22.469749 8.5435219 3
99.651131 22.794044 8.4077177 3
100.15504 22.644367 8.4877539 3
100.26682 22.604696 8.5059891 3
100.32043 22.605341 8.5132561 3
100.35765 22.592007 8.5193367 3
100.3647 22.609049 8.5190077 3
100.34611 22.615772 8.5159655 3
100.35561 22.638542 8.5155249 3
100.35561 22.638542 8.5155249 3
100.38134 22.648746 8.518239 3
100.37207 22.652172 8.516716 3
100.37003 22.672634 8.514863 3
100.3793 22.66918 8.516386 3
100.37733 22.689653 8.5145321 3
100.26633 22.731434 8.4962482 3
100.23935 22.76861 8.4896984 3
100.20241 22.782684 8.4836006 3
100.19158 22.807302 8.4802055 3
100.18236 22.810848 8.4786806 3
100.1558 22.848625 8.4721146 3
100.14658 22.852209 8.4705887 3
100.1702 22.856808 8.4734077 3
100.26224 22.820793 8.4886713 3
100.28175 22.840288 8.4897423 3
100.23581 22.858479 8.4821053 3
100.25283 22.87225 8.4832878 3
100.2253 22.883247 8.4787045 3
100.19006 22.925047 8.4705982 3
100.2542 22.899132 8.4812994 3
100.2595 22.910725 8.4810686 3
100.24119 22.918165 8.4780102 3
100.21533 22.956425 8.471427 3
100.23361 22.948912 8.4744873 3
100.2326 22.97015 8.4726076 3
100.26912 22.955013 8.4787302 3
100.28908 22.974319 8.4797993 3
100.22528 23.001064 8.4690781 3
100.17616 23.035757 8.4596529 3
100.16705 23.039597 8.4581203 3
100.16006 23.070889 8.4545803 3
100.10552 23.094139 8.445384 3
100.13223 23.104181 8.4480896 3
100.14131 23.100279 8.4496231 3
100.17087 23.116055 8.4522123 3
100.0893 23.151503 8.4384031 3
99.995514 23.206961 8.421279 3
99.950233 23.226744 8.4136047 3
86.385834 29.248119 6.1066575 3
86.467186 29.282888 6.1145325 3
86.512314 29.262791 6.1222134 3
86.575615 29.305115 6.1270256 3
86.638718 29.276787 6.1377835 3
86.711105 29.337946 6.1421614 3
86.747101 29.321617 6.1483126 3
86.828423 29.354771 6.1562185 3
86.873352 29.334223 6.1639104 3
86.963799 29.385916 6.1713877 3
86.999672 29.369333 6.1775451 3
87.06282 29.386568 6.1843681 3
87.107628 29.365753 6.1920667 3
87.189095 29.420391 6.1980276 3
87.23381 29.399399 6.2057304 3
87.306107 29.434635 6.2121358 3
87.350761 29.413507 6.219842 3
87.432266 29.466873 6.2258263 3
87.476837 29.445566 6.2335367 3
87.530952 29.465553 6.2388477 3
87.575485 29.44416 6.2465601 3
87.665863 29.492054 6.2541094 3
87.710304 29.470482 6.261826 3
87.773643 29.508068 6.2667255 3
87.809143 29.490704 6.272902 3
87.890663 29.541681 6.2789307 3
87.934952 29.519798 6.2866545 3
87.988991 29.538418 6.2919931 3
88.024384 29.520844 6.2981739 3
88.105888 29.570702 6.304224 3
88.15004 29.548553 6.3119545 3
88.222198 29.579922 6.3184342 3
102.18983 22.541964 8.7666874 3
102.1944 22.549749 8.7665358 3
102.18561 22.554258 8.7649879 3
102.21235 22.560753 8.7677832 3
102.20358 22.565296 8.7662344 3
102.20174 22.581505 8.7644587 3
102.16671 22.599783 8.7582598 3
102.16735 22.620052 8.756403 3
102.17609 22.615448 8.7579536 3
88.814346 29.721554 6.3814378 3
88.895187 29.745285 6.3895254 3
88.9039 29.740631 6.391077 3
88.949928 29.782673 6.3929625 3
88.976021 29.768625 6.3976197 3
89.066414 29.808565 6.4053183 3
89.057739 29.813282 6.4037657 3
89.103912 29.854748 6.4056606 3
89.121246 29.845263 6.4087677 3
89.176132 29.881721 6.4122214 3
89.202087 29.867413 6.4168854 3
89.275322 29.915552 6.4214983 3
89.292587 29.905943 6.4246092 3
89.373405 29.927227 6.4327431 3
102.16852 22.771723 8.7417202 3
102.17712 22.766867 8.7432775 3
102.17606 22.783497 8.7414846 3
102.17606 22.783497 8.7414846 3
102.19474 22.79425 8.7427282 3
102.18617 22.799166 8.7411699 3
102.19981 22.802055 8.7425718 3
89.633224 30.133419 6.4450607 3
89.641762 30.128452 6.44662 3
89.688583 30.167698 6.4485493 3
89.705635 30.157715 6.4516697 3
89.788002 30.197952 6.4578905 3
89.796509 30.192928 6.4594517 3
89.858932 30.200239 6.4664688 3
89.875923 30.190153 6.4695921 3
89.924377 30.249775 6.4695807 3
89.932846 30.244698 6.4711428 3
90.005257 30.267555 6.4777789 3
89.996803 30.272657 6.4762158 3
90.070862 30.316334 6.4809031 3
90.096169 30.30093 6.4855947 3
90.124771 30.327709 6.4863777 3
90.150047 30.312254 6.4910703 3
90.215729 30.36031 6.4942074 3
90.224136 30.355122 6.4957724 3
90.271362 30.392208 6.4977379 3
90.313316 30.366154 6.5055666 3
90.370728 30.418638 6.5071507 3
90.387466 30.408148 6.5102844 3
90.451485 30.434093 6.5153942 3
90.493248 30.407745 6.5232306 3
90.548859 30.438572 6.5267811 3
90.598885 30.406803 6.5361891 3
90.648033 30.46332 6.5362282 3
90.648033 30.46332 6.5362282 3
90.720299 30.482811 6.5429287 3
90.745193 30.466751 6.5476375 3
90.800827 30.496586 6.5512066 3
90.842239 30.469696 6.5590572 3
90.897827 30.499168 6.5626335 3
90.914368 30.488361 6.5657749 3
90.96376 30.543528 6.5658364 3
91.004982 30.51635 6.5736947 3
91.042053 30.535589 6.5760865 3
91.058525 30.524685 6.5792303 3
91.13266 30.562778 6.5840211 3
91.13266 30.562778 6.5840211 3
91.19651 30.58556 6.5891929 3
91.204704 30.580051 6.590766 3
91.287079 30.611797 6.5971456 3
91.29525 30.606258 6.5987196 3
91.356842 30.608036 6.6058502 3
91.365005 30.602478 6.6074252 3
91.414734 30.655708 6.6075191 3
91.431023 30.644529 6.610671 3
91.494812 30.666004 6.6158667 3
91.502937 30.660391 6.6174431 3
91.577164 30.696081 6.6222782 3
91.577164 30.696081 6.6222782 3
91.638557 30.696781 6.6294312 3
91.646645 30.691116 6.6310086 3
91.745056 30.70896 6.6405935 3
91.736992 30.714655 6.6390152 3
91.808739 30.729088 6.6458168 3
91.808739 30.729088 6.6458168 3
91.866882 30.774658 6.647521 3
91.882935 30.763153 6.6506815 3
91.938614 30.788429 6.654335 3
92.042725 30.713345 6.6748853 3
92.002304 30.807667 6.6595755 3
92.01828 30.79607 6.6627378 3
92.076569 30.840652 6.6644597 3
92.100479 30.82316 6.6692066 3
92.124352 30.870975 6.6665449 3
92.164101 30.841698 6.6744599 3
92.227715 30.859951 6.679719 3
92.21978 30.865829 6.6781349 3
92.291306 30.877924 6.6849823 3
92.307137 30.866116 6.6881504 3
92.373436 30.903423 6.6914816 3
92.373436 30.903423 6.6914816 3
92.436989 30.920746 6.6967583 3
92.460609 30.90287 6.7015152 3
92.492661 30.943764 6.7004547 3
92.539795 30.907877 6.7099724 3
92.611053 30.918514 6.7168503 3
92.634567 30.900497 6.7216115 3
93.114853 30.616297 6.8091288 3
93.310181 30.465393 6.8488245 3
93.387688 30.4674 6.857357 3
93.387688 30.4674 6.857357 3
93.433975 30.49337 6.8595409 3
93.488411 30.45079 6.8706646 3
93.526855 30.482521 6.8712664 3
93.526855 30.482521 6.8712664 3
93.575653 30.526659 6.871541 3
93.583389 30.520519 6.8731318 3
93.627129 30.527113 6.8772478 3
93.63485 30.520958 6.878839 3
93.722244 30.533714 6.8870807 3
93.722244 30.533714 6.8870807 3
93.799248 30.533625 6.8956585 3
93.806923 30.527418 6.8972507 3
93.871124 30.557884 6.900733 3
93.878769 30.551647 6.9023266 3
93.929977 30.551105 6.9080553 3
93.952896 30.532351 6.9128366 3
93.994148 30.580948 6.9115505 3
93.994148 30.580948 6.9115505 3
94.048004 30.598377 6.9153714 3
94.040405 30.604681 6.9137759 3
94.134941 30.608591 6.9236655 3
94.142517 30.602255 6.9252615 3
94.166092 30.64452 6.9227076 3
94.173645 30.638161 6.924305 3
94.189812 30.686737 6.9201527 3
94.21241 30.667595 6.9249458 3
94.276718 30.695946 6.9284668 3
94.291733 30.683123 6.931663 3
94.330589 30.712158 6.9323106 3
94.345558 30.699293 6.9355083 3
94.384445 30.728146 6.9361591 3
94.384445 30.728146 6.9361591 3
94.386154 30.789249 6.9288092 3
94.3787 30.795727 6.9272094 3
94.406151 30.855671 6.922739 3
94.391312 30.868687 6.9195375 3
94.382942 30.918236 6.9124961 3
94.353302 30.944324 6.9060898 3
94.374046 31.011015 6.9000063 3
94.351898 31.03067 6.8951988 3
94.362213 31.08569 6.8894291 3
94.332764 31.111984 6.8830166 3
94.354309 31.178917 6.8769197 3
94.332298 31.198725 6.8721075 3
94.354233 31.222311 6.8714628 3
94.354233 31.222311 6.8714628 3
94.398232 31.269356 6.8701735 3
94.412827 31.256065 6.8733835 3
94.445908 31.291191 6.8724189 3
94.525955 31.217842 6.8900824 3
94.548187 31.284302 6.8839865 3
94.526436 31.304394 6.8791666 3
94.577522 31.300751 6.8849545 3
94.563049 31.314175 6.8817401 3
94.636253 31.333439 6.8868937 3
94.643463 31.3267 6.8885012 3
94.698318 31.34086 6.8923726 3
94.719887 31.320576 6.8971982 3
94.771439 31.359392 6.8975401 3
94.771439 31.359392 6.8975401 3
94.811966 31.386652 6.8982019 3
94.840538 31.359406 6.9046421 3
94.873924 31.393272 6.903697 3
94.881042 31.386436 6.9053082 3
94.911499 31.445137 6.9008265 3
94.946968 31.410828 6.908885 3
94.994652 31.430618 6.9111681 3
95.008804 31.416851 6.914392 3
95.035301 31.457127 6.9118414 3
95.070564 31.422607 6.9199057 3
95.146324 31.414246 6.9286518 3
95.188515 31.372696 6.9383316 3
95.198074 31.451225 6.9290266 3
95.177063 31.472084 6.9241838 3
95.231735 31.484039 6.9280987 3
95.238716 31.477066 6.9297132 3
95.272446 31.50976 6.9287858 3
95.307259 31.474785 6.9368639 3
95.347923 31.500259 6.9375563 3
95.354858 31.493248 6.9391727 3
95.399925 31.536362 6.9379449 3
95.406837 31.529316 6.9395618 3
95.461395 31.540325 6.9434953 3
95.454506 31.547388 6.9418774 3
95.488441 31.579449 6.9409599 3
95.515923 31.551109 6.947433 3
95.556717 31.575884 6.9481378 3
95.590965 31.540359 6.9562321 3
95.636208 31.582544 6.955019 3
95.643028 31.575413 6.9566383 3
95.683846 31.599766 6.9573507 3
95.717834 31.564003 6.9654531 3
95.745041 31.602459 6.9629288 3
95.758598 31.588112 6.9661703 3
95.779144 31.633659 6.9620247 3
95.799408 31.61208 6.9668899 3
95.865112 31.63179 6.9705563 3
95.878563 31.617348 6.9738007 3
95.921448 31.616201 6.9780722 3
95.941589 31.594501 6.9829402 3
95.980354 31.64257 6.9801273 3
96.020447 31.59901 6.9898691 3
96.061195 31.62212 6.9906054 3
96.067856 31.61484 6.9922295 3
96.120018 31.647844 6.9926739 3
96.146545 31.618618 6.9991746 3
96.174072 31.655964 6.9966674 3
96.187294 31.641312 6.9999185 3
96.25444 31.63448 7.0071697 3
96.261024 31.627136 7.0087962 3
96.332832 31.637199 7.0141382 3
96.326271 31.644571 7.0125113 3
96.367027 31.666672 7.0132656 3
96.386635 31.644493 7.0181494 3
96.427361 31.666393 7.018908 3
96.446899 31.644161 7.0237932 3
96.494095 31.658432 7.026185 3
96.50708 31.64357 7.0294437 3
96.565628 31.667244 7.0315533 3
96.591476 31.637419 7.0380726 3
96.632103 31.658649 7.0388455 3
96.638542 31.651173 7.0404758 3
96.659943 31.694733 7.0363588 3
96.685608 31.664751 7.0428824 3
96.739059 31.670639 7.0469246 3
96.751846 31.655609 7.0501881 3
96.803879 31.685694 7.0506878 3
96.835701 31.647997 7.0588503 3
96.858505 31.666666 7.0582876 3
96.877548 31.644009 7.0631866 3
96.916855 31.688717 7.0604296 3
96.929489 31.673561 7.0636969 3
96.963783 31.701273 7.0628567 3
96.963783 31.701273 7.0628567 3
97.034691 31.707581 7.0682793 3
97.053482 31.684715 7.073185 3
97.076355 31.702959 7.0726285 3
97.107605 31.664791 7.0808063 3
97.159523 31.693356 7.081336 3
97.171959 31.67804 7.084609 3
97.200066 31.712711 7.0821447 3
97.218651 31.689682 7.0870562 3
97.270615 31.71777 7.087594 3
97.295273 31.686962 7.0941458 3
97.341881 31.698154 7.096602 3
97.360306 31.674995 7.1015172 3
97.3946 31.701437 7.1007004 3
97.388481 31.709175 7.0990615 3
97.446526 31.728773 7.1012535 3
97.470871 31.697723 7.1078129 3
97.511292 31.716059 7.1086421 3
97.517357 31.708279 7.1102824 3
