# .PCD v0.7 - Point Cloud Data file format
VERSION 0.7
FIELDS x y z intensity
SIZE 4 4 4 4
TYPE F F F F
COUNT 1 1 1 1
WIDTH 1409
HEIGHT 1
VIEWPOINT 0 0 0 1 0 0 0
POINTS 1409
DATA ascii
28.522919 45.773537 1.476136 6.8611107
28.489693 45.8498 1.545195 7
28.543858 53.992107 1.414391 5
28.570326 54.176178 1.5388589 6.479167
28.494617 54.330025 1.564898 6.5
28.519281 54.400246 1.5050641 6
28.409533 55.163708 1.5836926 7
28.413044 59.815372 1.5194381 6
28.580051 -9.0510292 1.7138416 6.4285712
28.593199 45.518452 1.655423 8
28.435431 45.928661 1.6857101 8
28.539703 54.083725 1.7252264 7.1247263
28.561428 54.300743 1.6100163 7
28.546892 45.509617 1.8337897 9
28.5772 45.747467 1.8285969 9
28.546885 53.960213 1.9022772 8
28.513577 54.133568 1.8797343 8
28.518082 54.241058 1.885201 8
28.578157 45.523205 2.0099812 10
28.494843 53.964935 2.1283131 9
28.530071 54.123291 2.059804 8.666666
28.586733 54.263 2.1570177 8.111063
28.537766 54.173805 2.2384827 9
28.553082 54.214844 2.2446251 10
28.412025 54.437828 2.2795794 8
28.692228 -8.9215393 -3.5282538 7
28.630598 -8.9978924 -0.81626713 5
28.789564 11.678679 -0.71459889 5
28.652098 -9.0704041 -0.54345822 6.9987545
28.795036 -8.9807863 -0.36062664 6
28.679079 -8.6769543 -0.21970725 6
28.669697 7.2113309 -0.20131288 7
28.79385 7.4025602 -0.32991618 7
28.758713 -9.0073643 -0.19201082 8
28.721991 7.1653566 -0.11319027 7.5
28.72105 8.1540785 -0.11732648 7
28.748325 -9.0786562 0.036083505 7.75
28.663994 -8.7803955 0.24439055 7
28.61084 2.706058 0.31991568 9
28.720081 7.0744286 0.32249051 7.9387751
28.799032 19.360491 0.32708859 8
28.704205 19.455669 0.26880202 8
28.623873 7.3965259 0.4295643 9
28.675066 12.107222 0.54554671 8
28.704479 12.207059 0.53243887 8
28.630913 19.39345 0.59945309 8
28.715088 12.035039 0.62159419 8
28.632793 19.323059 0.73722577 7.9791527
28.614363 19.266499 1.1283543 8
28.717743 30.896275 1.0095377 7
28.683254 19.243408 1.3391837 8
28.689533 45.418228 1.2851158 6
28.72121 35.646996 1.4264315 8
28.634933 53.898781 1.5778511 6.25
28.736626 54.125053 1.496443 6
28.7561 54.358105 1.5223515 6.25
28.747578 54.498257 1.5625207 6.75
28.744028 54.939163 1.4957137 6
28.622169 55.33292 1.5128179 6
28.64432 45.737251 1.7205217 8.375
28.699909 53.955246 1.6889337 7.018229
28.682564 54.107368 1.7196585 7
28.681622 54.344078 1.6062109 7
28.759878 54.70388 1.6080016 7
28.701845 45.726128 1.8269668 9
28.705318 53.965622 1.8475739 8
28.678066 54.083088 1.9406917 8.25
28.690445 54.248154 1.8722649 8
28.686981 54.400089 1.9973352 9
28.696194 54.91037 1.8257229 8
28.729305 45.721535 2.000952 10
28.64299 53.946251 2.1564407 9
28.680567 54.040367 2.068471 9
28.634041 54.33075 2.1877151 9
28.783226 54.123077 2.2321839 10
28.657984 54.224144 2.2445309 10
28.920517 -8.891571 -3.5644855 7
28.851665 -9.4795532 -2.1839604 7
28.970848 -9.1006775 -0.67658377 7
28.940981 -8.1663513 -0.64476001 6
28.910717 11.910605 -0.69066298 5
28.922073 -9.0196705 -0.49693549 7.5
28.945936 -8.9385509 -0.50503445 6.5
28.809315 -9.1776142 -0.36707771 7
28.989483 -9.2294569 -0.059549067 8
28.908861 -9.1349983 -0.097564541 7.5127501
28.844353 7.1732812 -0.033125021 8
28.88427 -9.1060781 0.15114817 8
28.994576 8.6260366 0.0461706 7
28.974678 12.228956 0.17170571 7
28.985643 7.2750921 0.20838821 9
28.897282 19.512032 0.29394722 7.5
28.995661 19.79818 0.26065651 8
28.931759 7.1703973 0.40271419 8
28.923796 7.3313379 0.42085999 9
28.958523 12.143894 0.52152514 8
28.890446 19.440491 0.48075712 7.5
28.91198 19.268738 0.74096763 8
28.996937 19.49457 0.626055 8
28.953999 19.18195 0.92977113 8
28.86832 30.512897 0.94848549 7
28.90107 31.001991 0.95840216 7
28.971611 30.960819 1.0262291 7.083333
28.91391 31.99975 1.1116823 8
28.872528 19.444159 1.3677552 8
28.949669 30.699692 1.3404056 8
28.955645 45.782993 1.3509161 7
28.852001 45.898727 1.3620038 7
28.922935 -9.0660982 1.5207126 6
28.820871 30.693167 1.4415724 8
28.985046 33.317303 1.4649441 8
28.958832 33.999405 1.4849234 8
28.997175 34.260433 1.4513142 8
28.988825 35.230804 1.4314063 8
28.889874 45.318871 1.4377322 7
28.878113 53.977993 1.5672188 7
28.871239 54.346478 1.538108 6.25
28.867594 54.618961 1.4976854 6
28.885859 54.910828 1.4932778 6
28.921146 45.328716 1.6979375 8.5
28.925697 45.819096 1.6504893 8.9722223
28.891582 53.976341 1.6802301 7.0625
28.83337 54.125359 1.7150345 7.5
28.93095 54.25161 1.7507379 7.5
28.855259 54.635429 1.6044434 7
28.968431 55.012016 1.7409942 7.5
28.982872 56.586205 1.6201116 7
28.898581 60.026836 1.7289219 7
28.954607 -9.0191507 1.8597624 7
28.905863 45.127594 1.9665654 10
28.8568 53.92474 1.8487581 8
28.891119 54.104931 1.891675 7.8639565
28.822758 54.249214 1.8942082 8
28.870882 54.473267 1.8156679 8
28.939816 49.638252 2.0366035 0.6875
28.948965 53.999016 2.0021224 9
28.885496 54.143593 2.091655 8.625
28.879433 54.245907 2.1094041 8.9517937
28.979691 55.08252 2.1322398 9
28.857737 60.024036 2.0877292 8
28.899595 54.286087 2.2424591 9
29.16975 -8.9163971 -3.6134517 7
29.069864 -9.0277233 -0.84055984 7
29.090488 -9.049674 -0.75840479 7
29.109921 -8.1814022 -0.65187633 6
29.071228 12.097984 -0.66738522 5
29.020103 -9.0660019 -0.57733178 6.9963884
29.159466 -8.6904507 -0.24422511 6
29.1572 0.9230231 -0.21267179 0.72500002
29.106773 2.951519 -0.28363627 6.5
29.014381 7.3183622 -0.26779905 7
29.165726 8.2593632 -0.23423198 7
29.024582 -9.0964508 -0.06484136 7
29.062016 -8.9822063 -0.14500004 8
29.177671 2.8836837 -0.015859574 8
29.079851 3.0556965 -0.15356374 7
29.032299 7.1811686 -0.10604575 7.5
29.101353 7.618247 -0.18782941 7
29.183464 7.859705 -0.17583689 7
29.109854 8.1700888 -0.15875411 7
29.09108 8.2151775 -0.17938802 7
29.077976 8.5822401 -0.036065388 7
29.148996 8.9881849 -0.062578157 7
29.150911 9.013957 -0.01185438 7
29.175861 9.4812469 -0.0029599071 7
29.025608 11.024973 -0.071832053 7
29.038895 -9.0791245 0.15663153 7.9995613
29.0872 3.019269 0.010523453 8
29.055561 7.085907 0.060984582 8
29.194447 9.7055044 0.0010440648 7
29.113876 9.9071302 0.0065186173 7
29.002254 10.120816 0.012806594 7
29.146507 12.314828 0.14559703 7
29.022572 19.500546 0.12826474 8
29.062635 19.829618 0.1250778 8
29.127384 -8.7998705 0.20995653 7
29.158993 2.6222465 0.21195626 9
29.089424 2.888319 0.33344454 10
29.070953 7.0186672 0.24961528 7.9379578
29.010731 7.2696252 0.26275772 8.095336
29.120277 19.510717 0.38762909 7
29.017372 19.690166 0.36135733 7.5
29.016674 7.1488247 0.43346667 8
29.04623 11.945812 0.50375319 8
29.116722 12.23603 0.52043009 8
29.120161 19.394897 0.5829429 8
29.103012 19.432619 0.47981644 7.5
29.131958 19.705437 0.56584543 7.75
29.081261 19.81477 0.52022564 8
29.065105 19.352903 0.73294222 8
29.060184 19.42004 0.7258153 7.9582853
29.082603 19.724237 0.73419267 8
29.086964 19.848429 0.63886094 8
29.17548 19.17025 0.82913625 8
29.060883 30.658127 0.97358751 7.0833335
29.053085 31.023104 0.96100408 7
29.023813 19.351675 1.0564922 8
29.185745 19.526182 1.0425266 8
29.079784 19.607933 1.1292758 8
29.146595 32.150848 1.1195067 8
29.113346 32.647064 1.1136296 7.5
29.169708 33.006866 1.124716 8
29.143236 33.389427 1.1307437 8
29.142513 33.672764 1.1189818 8
29.133396 33.910027 1.1273856 7.75
29.083183 34.18552 1.1442018 8
29.084133 34.497395 1.1217632 7.625
29.045296 34.872108 1.1562747 8
29.111895 19.611784 1.3952625 8
29.116817 30.385868 1.3320844 8
29.041559 30.447104 1.3512921 8
29.188408 32.283962 1.3766773 8
29.104578 32.713974 1.3934882 8
29.143661 33.28614 1.3413832 8
29.155033 33.417629 1.2260854 8
29.101831 33.792316 1.3456597 8
29.110182 34.115391 1.3259972 8
29.093094 34.549068 1.3536074 8
29.048973 35.477356 1.3550215 8
29.059389 45.621174 1.337304 7
29.145821 54.406437 1.3752568 5
29.053932 30.423189 1.4240804 8
29.070534 32.248764 1.4329102 8
29.142826 33.063816 1.4374563 8
29.173317 34.182301 1.4745307 8
29.144964 35.001484 1.4164051 8
29.171246 35.446934 1.4555346 8
29.080389 35.834835 1.4138124 8
29.126966 45.235424 1.4208373 7
29.051748 45.610054 1.4929312 8
29.049404 54.336273 1.4919494 6.25
29.128929 54.479958 1.5047121 6.5
29.154858 54.691895 1.5494175 6.625
29.103113 45.337082 1.7416298 8.7857141
29.052467 45.595627 1.6488497 9
29.050774 45.798145 1.7466701 9.666667
29.141911 53.973724 1.716115 7.5
29.034361 54.033707 1.7244484 7.25
29.055668 54.353123 1.6009479 7
29.11166 54.444992 1.7857814 7.958333
29.073315 55.883244 1.7240064 7.5
29.014204 56.318443 1.6166029 7
29.030697 60.039482 1.7202119 7
29.02519 -9.019681 1.8507217 7
29.052406 53.933403 1.824401 8
29.050854 54.116642 1.8643141 8
29.100998 54.264011 1.9447331 8.125
29.171436 54.435734 1.8473575 8
29.071011 54.160988 2.0823605 9
29.064373 54.30225 2.1439826 9
29.119934 54.483131 2.1950941 10
29.024031 60.030563 2.075913 8
29.159695 53.96793 2.312382 8
29.082369 54.243858 2.2049699 10
29.285332 -8.8926735 -3.6304147 7
29.213558 -9.4667015 -2.2229383 7
29.391529 -8.6224947 -1.0162491 5
29.340597 -9.0219555 -0.84715611 7
29.380768 -9.0895901 -0.67139024 7
29.224796 12.278168 -0.64505136 5
29.374134 12.552301 -0.61653626 5
29.308445 -9.0344677 -0.50630927 7.25
29.373648 -8.9863195 -0.58071733 7
29.278135 2.747926 -0.24929786 7
29.318642 2.9579468 -0.27342206 6.25
29.351219 -9.2730227 -0.086575538 8
29.337681 -9.1435966 -0.092941515 7.2906561
29.325788 2.6532614 -0.024578422 8
29.200968 7.6115742 -0.16433008 7
29.312756 8.1118793 -0.087476879 7
29.271885 8.2360649 -0.16939147 7
29.282322 -9.1048431 0.023409069 8
29.286873 2.7242928 0.092257842 8.5
29.277683 2.9095268 0.15747739 9
29.242435 3.1174917 0.17867452 9.0583334
29.299904 7.172286 0.09645047 8
29.283201 7.2821274 0.086926192 8
29.277531 7.51404 0.031429544 7
29.349707 7.9088383 0.032012545 7
29.340849 10.714836 0.016563982 7
29.35368 11.980675 0.19559339 7
29.279606 12.143555 0.18681866 7.0138888
29.310913 2.7487822 0.20470014 9
29.203705 2.9672859 0.21807045 9
29.256052 3.055434 0.32656246 10
29.223457 3.2078969 0.33925748 10
29.363352 7.1748633 0.27181906 8
29.356045 7.8591051 0.34109965 8
29.398346 8.1452913 0.35968295 8
29.366608 8.3973694 0.3654457 8
29.372746 8.4922466 0.35648999 8
29.354582 11.039851 0.34947294 8
29.386026 19.74365 0.27725348 8
29.316742 7.9643412 0.4074896 8
29.323236 8.4708366 0.42344594 8
29.396494 11.042683 0.47700259 8
29.345531 11.452513 0.52156848 8
29.286076 12.113064 0.49578461 8
29.209528 19.415194 0.5169487 7
29.205481 19.796833 0.49011153 8
29.301373 7.278656 0.66519427 9
29.279617 12.01963 0.60519594 8
29.389742 19.465675 0.73213017 8
29.389605 19.663584 0.75185406 8
29.294836 32.074123 0.9702397 7
29.381878 19.503796 1.0072781 8
29.258556 32.037624 1.1014862 8
29.297363 32.230713 1.0765638 7
29.250402 32.453518 1.0205956 7.3333335
29.273535 32.813278 1.0393513 7
29.246078 33.33287 1.0522959 7
29.239416 33.623955 1.0004064 7
29.227556 34.01569 1.007261 7
29.203957 34.446846 1.0147841 7
29.298729 55.061935 1.196502 6
29.325279 55.313541 1.1928749 6
29.34309 19.461399 1.3905692 8
29.349037 30.606371 1.3749025 8
29.248837 32.087818 1.2782477 8
29.312183 32.254944 1.3306788 8
29.226852 32.501808 1.3801994 8
29.247538 32.674812 1.320122 8
29.385698 32.839809 1.2918124 8
29.394897 33.215523 1.2943828 8
29.297665 33.424629 1.3724108 8
29.38191 33.747257 1.2905855 8
29.29924 34.512856 1.3338526 8
29.265564 34.920959 1.3294221 8
29.301031 35.495056 1.2749686 8
29.228865 54.315063 1.2938232 6
29.27774 2.1742449 1.5141175 5.5
29.315742 2.2326708 1.5505049 5.875
29.232166 2.4060621 1.5569267 6
29.308319 32.034554 1.409411 8
29.2314 32.608555 1.4449722 8
29.229198 33.005669 1.4394135 8
29.206375 33.503223 1.4540043 8
29.246254 33.852261 1.4349723 8
29.244297 34.117786 1.4108534 8
29.339085 45.288609 1.5349666 8
29.307858 54.551636 1.4668148 6.0832691
29.257944 54.736046 1.5043738 6.5
29.34156 54.985336 1.4545836 7
29.28672 55.040398 1.5229201 6.3333335
29.297077 55.306084 1.5808804 6.875
29.35043 2.1556256 1.7601731 7
29.310665 2.3189368 1.7334934 7
29.369205 44.740032 1.7158908 9
29.330734 45.3195 1.7074167 9
29.286617 49.584705 1.6147335 2
29.206709 53.982342 1.7779826 8
29.238722 54.141953 1.7230682 7.5
29.291592 54.285538 1.7878346 8
29.327736 54.506924 1.7563393 7.75
29.296246 54.624226 1.7974937 8
29.32785 54.988068 1.7331846 7.3845835
29.280252 55.099152 1.6068324 7
29.319893 55.310028 1.725265 7.4340277
29.372223 60.04895 1.6971619 7
29.3615 2.2764511 1.9072437 8
29.250925 54.094582 1.863049 8
29.280148 54.263054 1.8914599 8.223959
29.260532 54.510506 1.8290139 8.1111107
29.278557 54.757576 1.8004904 8
29.301369 54.866554 1.8533213 8
29.306934 55.175785 1.8881357 8
29.334766 55.22419 1.8254281 8
29.267721 55.753593 1.881449 8
29.33736 54.317177 2.1067467 9.083334
29.359018 54.506065 2.1377401 9.333334
29.207714 54.938675 2.169343 10
29.276039 55.370033 2.1729593 9.5
29.397219 60.054958 2.0500345 8
29.259777 54.481129 2.2166476 10
29.24052 54.669266 2.2238407 10
29.350876 54.945217 2.2508254 9
29.57452 -9.4507179 -2.2615349 7
29.509142 -8.6288052 -1.0188721 5
29.514076 -9.0981216 -0.72323155 7
29.514385 -8.88381 -0.73146999 6
29.408909 -8.1943264 -0.66382152 6
29.483154 11.694358 -0.67050707 5
29.435312 -9.0671978 -0.58189321 6.748908
29.55797 12.848728 -0.5843519 5
29.510393 -9.0846796 -0.29571766 7.5
29.513531 7.3344584 -0.20695469 7
29.578863 7.5090418 -0.33616588 7
29.480648 7.9176607 -0.24239242 7
29.445375 8.1912413 -0.24028376 7
29.412781 -9.2261028 -0.10922273 8
29.410355 3.0209177 -0.157121 7
29.482325 7.2632837 -0.061956912 7.875
29.44805 7.4974756 -0.11772038 7
29.538227 7.9063301 -0.083404034 7
29.515568 8.1679049 -0.080148511 7
29.591461 8.336628 -0.034873649 7
29.596447 8.4183245 -0.043410867 7
29.503632 8.6186352 -0.049057469 7
29.437721 8.8874187 -0.056315258 7
29.591354 9.2002144 -0.0057342649 7
29.479996 -9.2104836 0.10674873 8
29.528027 -9.1370068 0.11682487 7.9947643
29.404741 2.9940722 0.07513164 8.5
29.426064 7.101306 0.15564764 8
29.472622 7.3531609 0.083009459 7.5041504
29.462265 7.4344058 0.18035352 8
29.503201 7.7189302 0.087576143 7.5
29.490463 7.9387474 0.090109155 7.5
29.498634 8.1450825 0.074866295 7.5
29.500599 8.2462997 0.065399498 8
29.547741 8.5419006 0.070979208 7.328126
29.519112 8.7357874 0.05131045 7.0625
29.585609 8.9370651 0.14894393 7.5
29.56271 9.0831747 0.090843216 7.3125
29.546453 9.3305588 0.035906646 7.1666665
29.569925 9.8659716 0.047210298 7.25
29.567139 10.23769 0.079227835 7.5
29.583679 10.638616 0.09281192 7.5
29.493885 10.949125 0.12167136 7.3541665
29.580784 11.012354 0.11601907 7
29.567364 11.205078 0.12363784 7
29.58917 11.704361 0.11518931 7
29.564476 11.847069 0.13130231 7.375
29.536493 12.142822 0.13294917 7
29.448917 12.288512 0.16623935 7
29.510952 -8.338583 0.27862948 7
29.424732 7.0861769 0.27436078 8.2515621
29.568245 7.3144245 0.33846933 8.0625
29.523365 7.4562206 0.30655122 8.3747616
29.460323 7.7665081 0.24169183 8
29.470814 7.8903666 0.28302765 7.9753585
29.539839 8.1534042 0.26178426 8
29.503441 8.2997246 0.26481909 7.8750272
29.442717 8.4330416 0.24016881 8
29.529222 8.935401 0.34438682 8
29.486769 11.493807 0.35614595 8
29.435865 19.645567 0.23868611 8
29.420694 7.1478395 0.55462897 9
29.551672 7.3431168 0.41006094 9
29.490818 7.4861183 0.43808895 9
29.567982 7.7928224 0.58192194 8.208333
29.598553 8.2507992 0.40187103 8
29.486576 8.5259151 0.43508056 8.4375
29.558689 8.6572227 0.59905678 9
29.5548 9.5115662 0.55780768 8.5
29.536579 10.204741 0.47199196 8
29.56542 10.670596 0.51999331 8
29.477524 10.966665 0.46636328 8
29.490414 11.046552 0.45643404 8
29.444374 11.349621 0.51186949 8
29.569496 11.47501 0.41714939 8
29.481592 11.872128 0.49610654 8.041667
29.59906 12.019988 0.43087217 8
29.551292 19.546001 0.57535183 8
29.521475 19.705761 0.50040668 8
29.508066 19.858105 0.49410424 8
29.582325 7.3082223 0.65368676 9
29.537031 7.442194 0.6427924 8.7476845
29.561378 8.1215267 0.63599098 8.4416666
29.553513 9.042963 0.65102595 9
29.52597 11.744487 0.67415309 8.5
29.47065 19.53307 0.74707752 8
29.544468 19.684507 0.69325924 7.9995117
29.487864 19.501965 0.83996522 8
29.492052 30.559069 1.1318583 8
29.424999 32.222389 1.1216257 7.5833335
29.522541 55.744286 1.1862445 6
29.577131 56.090702 1.1802305 6
29.507593 30.480709 1.3651291 8
29.572121 44.988167 1.3570991 7
29.520018 45.002693 1.3602369 7
29.559994 45.37896 1.3596933 7
29.500628 45.435699 1.3643147 7
29.473095 19.612843 1.4115717 8
29.41012 44.804928 1.5346291 8
29.580683 45.024807 1.5324262 8
29.445641 49.744598 1.5735638 0
29.442165 54.53904 1.5376976 6.5
29.476696 54.67564 1.444325 7
29.541954 54.813408 1.5982429 7
29.405655 2.4462628 1.7510327 7.5
29.508926 44.940647 1.7273109 9.1000004
29.458315 45.015427 1.7090849 9
29.598631 45.382866 1.6898028 9
29.516083 45.431938 1.6936781 9
29.491869 54.232758 1.7542452 8
29.527166 54.520226 1.757077 8
29.449444 54.813606 1.7729044 8
29.437231 2.2857609 1.8690951 8
29.488836 2.4467616 1.9585649 8.833334
29.435144 45.30294 1.8721678 10
29.42268 54.278168 1.8640957 8
29.443773 54.525932 1.8513148 8
29.451622 54.98735 1.9101939 8
29.430494 54.21151 2.1307883 9
29.449047 54.484543 2.0327182 9
29.412567 54.551792 2.2234836 10
29.685209 -9.4565849 -2.2745166 7
29.795393 -9.0405998 -0.85153514 7
29.676731 -8.2094688 -0.67473865 6
29.773018 -8.1791744 -0.67686945 6
29.635612 11.333553 -0.68810642 5
29.628372 11.653225 -0.66476452 5
29.738892 -9.0583668 -0.52187514 6.4968715
29.778793 4.9907818 -0.59277028 6
29.699059 5.9158611 -0.53205901 6
29.777283 6.1170869 -0.51703387 6
29.725573 6.4728537 -0.49512106 6
29.790041 6.8330011 -0.47056246 6
29.681255 13.051746 -0.56255347 5
29.688269 -8.7138748 -0.2716434 6
29.773905 2.8247695 -0.26063842 7
29.657288 7.9203377 -0.22548017 7
29.634022 8.0545549 -0.28007835 7
29.741379 8.3442926 -0.33626878 7
29.752304 9.2873373 -0.33551615 7
29.798592 -9.253376 -0.098688737 8
29.667116 -9.0799484 -0.093194894 8
29.771145 2.7396419 -0.03186208 8
29.605385 7.7444906 -0.019154906 7
29.64056 7.9537668 -0.10162129 7.0234375
29.631153 8.1353168 -0.086207807 7
29.664833 8.2302294 -0.1167189 7
29.649101 8.5136719 -0.097006962 7
29.634861 9.0958624 -0.13922004 7
29.608686 9.3263369 -0.010480538 7
29.635208 9.4470425 -0.078384101 7
29.668987 9.8874397 -0.15413494 7
29.702791 10.203495 -0.1706102 7
29.700001 10.480902 -0.16907075 7
29.712006 10.610674 -0.1366248 7
29.708912 10.925155 -0.10274369 7
29.747326 11.259405 -0.066722885 7
29.645857 7.9693432 0.042428382 7.25
29.622803 8.4484949 0.067716554 7.25
29.605869 9.0898571 0.15970759 8
29.621931 9.5178404 0.17175035 8
29.635265 9.7010288 0.12611189 7
29.648113 9.9407654 0.11780914 7.25
29.644215 10.139894 0.059180044 7
29.649826 10.224518 0.071363486 7.0568576
29.63644 10.522854 0.15844338 7.3017578
29.695717 10.782841 0.030494511 7
29.620872 10.946602 0.12095642 7
29.691528 11.03826 0.10740075 7.0524902
29.648312 11.298608 0.11784447 7.0135632
29.716497 11.507116 0.13396277 7
29.661278 11.707245 0.13884766 7.1592884
29.699707 11.941778 0.09378542 7
29.628637 12.029058 0.14514509 7
29.767353 -8.3458691 0.26581353 7
29.636391 7.1491041 0.21632791 8
29.616238 7.373178 0.20301658 8
29.651947 7.4023633 0.34113708 8.0078125
29.62118 7.6936707 0.35311937 8.0625
29.675894 7.8317041 0.30044007 8.0253906
29.674187 8.0893831 0.30882835 8.0525284
29.668182 8.351614 0.33936289 8.125
29.691614 8.4665241 0.36267173 8.0266447
29.661736 8.6529713 0.3766489 8.25
29.683697 8.9129534 0.37959957 8
29.69796 9.0715485 0.31689459 7.9999466
29.688854 9.4574718 0.31084013 7.7475586
29.659029 9.7412767 0.20097594 7.3572049
29.726273 9.8485527 0.36417297 8
29.667793 10.509592 0.32175231 8
29.704712 10.704582 0.28651738 8
29.665819 10.901527 0.32694018 8
29.740868 11.092644 0.26057684 8
29.764202 11.365192 0.33927611 8
29.714605 11.445752 0.28405634 8
29.683704 11.689191 0.33387053 8
29.639025 11.878702 0.32317913 8
29.64896 12.004495 0.3609671 8
29.704752 19.590534 0.37808493 7
29.75481 19.786503 0.33123037 7.5
29.669979 7.3731937 0.54246616 9
29.67577 7.4213495 0.57502782 8.25
29.675316 7.6654425 0.48313227 8
29.676847 7.8793106 0.48268151 8.2777786
29.741655 8.1755943 0.53918558 8.083333
29.70746 8.3265972 0.45969686 8.25
29.649998 8.4887104 0.49390185 8.2550154
29.678486 8.9251518 0.50188583 8.5102949
29.695669 9.1451092 0.45228231 8.5
29.678051 9.2831879 0.53922647 8.252492
29.658926 9.4901295 0.45779639 8.5
29.693199 9.7313251 0.56306458 8.25177
29.711157 9.8923931 0.42397887 8
29.700382 10.077133 0.45815027 8.25
29.784069 10.208454 0.48649269 8.0002985
29.705671 10.547776 0.45029014 8.0001431
29.742455 10.779501 0.43262619 8
29.694832 10.922025 0.44839397 8.0006237
29.729021 11.136671 0.44037467 8
29.760159 11.24671 0.45962855 8.0625
29.738216 11.458801 0.46473312 8.0008945
29.727333 11.740038 0.49253061 8.0000725
29.664818 11.888494 0.49670029 8
29.737442 19.549755 0.40158322 7
29.704044 19.724108 0.52330565 8
29.6474 19.833797 0.40562165 8
29.609552 7.5589881 0.66206408 9
29.632238 8.2599068 0.64401972 9
29.601395 8.4349384 0.74160612 9
29.790051 8.6962128 0.61902583 8
29.629856 8.9696388 0.69307721 9
29.650967 9.2514906 0.63363671 9
29.683632 9.9047279 0.64983398 9
29.622526 10.489028 0.67719615 8.5
29.721626 10.880642 0.76947409 9
29.634026 11.923514 0.79129541 9
29.626928 19.585745 0.76673794 8
29.664646 19.748394 0.73088086 8
29.720001 19.765726 0.83809417 8
29.665071 19.366106 1.0159713 8
29.698912 19.526543 1.0254794 8
29.694197 56.31287 1.1760137 6
29.766405 56.592854 1.1705574 6
29.636063 57.754028 1.1469256 6
29.703415 30.497391 1.2964494 8.0034714
29.776043 45.012775 1.3514743 7
29.669279 45.244217 1.3572801 7
29.743814 54.306133 1.3497664 5.3333335
29.693161 45.28466 1.5305064 8
29.667048 54.554752 1.5596632 6.3333335
29.639948 54.925732 1.5717202 6.3333335
29.601465 44.977154 1.7061911 9
29.760887 45.257744 1.7264338 9.125
29.763758 60.069016 1.6706188 7
29.699196 44.909374 1.8836613 10
29.662022 45.365971 1.8520112 10
29.611584 45.474636 1.8504207 10
29.605516 54.288383 1.8545743 8
29.68449 54.565048 1.8492725 7.75
29.60177 54.970615 1.8826523 8
29.756975 59.834091 2.0898254 8
29.736036 60.070702 2.0264137 8
29.890425 -9.2018633 -0.6238544 7
29.83968 -9.0071754 -0.66059166 7
29.87501 4.135891 -0.6505667 6
29.855371 4.5335741 -0.62292421 6
29.944895 -9.0292282 -0.53917426 7
29.861601 -8.986372 -0.59624541 7
29.801598 4.973053 -0.59346652 6
29.822197 6.0491729 -0.52052641 6
29.866457 13.364487 -0.5293951 5
29.834322 -9.1489162 -0.39898705 7
29.948217 -8.7359276 -0.28545892 6
29.894606 0.9910621 -0.35923684 1.5
29.886427 1.0035862 -0.36513144 1
29.967203 3.1490853 -0.258573 7
29.843748 10.536062 -0.33622998 7
29.866863 11.059959 -0.33663309 7
29.937763 11.371778 -0.33761501 7
29.904076 -9.2588749 -0.10253479 8
29.822216 -9.1516104 -0.13032919 7.3121252
29.837435 2.9325271 -0.029523045 8
29.921997 3.096663 -0.1247152 7.25
29.829849 11.08197 -0.16325787 7
29.848093 -9.0730524 0.094349295 7.8798828
29.809244 2.7655971 0.19706604 9
29.906347 3.0758352 0.10793617 8.2738094
29.840067 11.113794 0.099230856 8
29.805767 11.620712 0.038294926 7
29.800053 19.861271 0.068939164 8
29.906109 3.1115799 0.26459056 9.25
29.970573 19.73098 0.31031632 7
29.994106 19.864904 0.3879227 8
29.827286 10.112007 0.42871201 8
29.84024 10.745294 0.42730254 8
29.813396 10.891126 0.51225805 8
29.848541 11.037506 0.59670448 8
29.843859 11.347177 0.42627323 8
29.808363 11.45863 0.50656831 8
29.894939 19.693798 0.47271341 7.25
29.9326 19.823753 0.40978003 8
29.884193 19.742922 0.98444003 8.666667
29.819138 30.568581 0.96048141 7.3333335
29.919317 45.104633 0.84386504 6
29.863689 58.322098 1.1330128 6
29.93078 30.56278 1.335656 8
29.900286 44.970753 1.3386956 7
29.803967 45.240635 1.3604187 7
29.975273 54.671196 1.3303028 5
29.85088 19.641125 1.4313834 8
29.906229 44.94717 1.5281689 8
29.833361 45.003155 1.4103345 7.3333335
29.97296 54.549335 1.5836817 6.5
29.968178 30.401003 1.654698 9
29.916183 45.07666 1.7315542 9.125
29.890026 59.829468 1.7284125 7
29.909384 60.043259 1.6601096 7
29.883816 45.165699 1.8874156 10
29.816484 54.880005 1.8220339 7
29.889595 59.839607 2.0833745 8
29.800323 60.07193 2.0218587 8
30.024342 -9.4438534 -2.3110535 7
30.036112 -9.0988979 -0.6961596 7
30.121716 -8.9762449 -0.62024087 7
30.077555 -9.1139154 -0.47740799 7
30.066574 13.622419 -0.49898037 5
30.15955 -8.7403088 -0.29642248 6
30.191898 -9.2997065 -0.1500621 8
30.169569 -9.1108179 -0.093414515 7.4997802
30.135933 3.3901942 -0.092752367 7
30.117046 -9.1152287 0.049993109 7.9794922
30.192814 3.4663997 0.059847131 8
30.189825 19.906206 0.039458528 8
30.193407 -8.3304863 0.24508286 7
30.082367 3.1151769 0.38196033 10
30.007139 3.3339326 0.23789795 9
30.150002 3.4722466 0.22358473 9
30.134846 19.786789 0.29806471 8
30.130913 19.825647 0.36498603 7.0555553
30.143421 19.781685 0.56714112 8
30.16832 19.847464 0.52908087 8
30.155994 19.76849 0.69881243 8
30.094313 19.838615 0.62627983 8
30.155525 19.742071 0.89562982 8
30.032734 45.13662 0.83479953 6
30.157505 19.564337 1.0128471 8
30.100281 30.481083 1.0983667 8
30.063446 57.449944 1.1515942 6
30.059982 57.63031 1.1476012 6
30.093832 58.462448 1.1282372 6
30.15889 58.71965 1.1215653 6
30.125233 30.473225 1.3205928 8.0046291
30.124203 44.913719 1.3224748 7
30.186169 54.596657 1.3844415 6
30.058926 55.015923 1.3158131 5
30.17305 44.571598 1.4160457 7
30.101023 44.70245 1.4846674 7.3333335
30.012695 44.886555 1.5195547 8
30.089905 54.669762 1.5642087 6
30.170395 54.894096 1.4226722 5.9781251
30.148653 55.355247 1.4807315 5.916667
30.052593 44.473114 1.7883835 9
30.112791 44.70665 1.7806697 9
30.032879 44.870216 1.7133672 9
30.0854 54.930874 1.7327796 8
30.16334 59.827103 1.713969 7
30.125511 44.518265 1.9008732 9.625
30.019756 45.000004 1.8851227 10
30.101753 54.681141 1.8847189 8.5
30.190603 54.862091 1.8826401 8.5
30.184969 59.849205 2.0690446 8
30.369196 -8.6236553 -1.0358617 5
30.216129 -9.0561285 -0.82657492 7
30.384731 -9.0524197 -0.68095148 7
30.227011 -8.9912701 -0.63748217 6.9950495
30.301195 -8.1839542 -0.69728947 6
30.389839 -9.0727911 -0.53413498 6
30.319042 3.1295531 -0.59100473 6
30.278156 3.2846513 -0.59317613 6
30.251545 6.167594 -0.50305074 6
30.26823 13.857801 -0.47000763 5
30.311375 3.4282393 -0.29288766 7
30.321161 -9.1476736 -0.091047421 7
30.24844 -8.9727497 -0.17959121 8
30.365082 3.1509609 -0.13074347 8
30.270893 3.4522927 -0.11225668 7.5
30.233841 -9.2193985 0.078957528 8
30.296688 3.1712165 0.076484188 8.875
30.217243 3.3743186 0.11720212 8.7583332
30.311012 3.4508719 0.11429664 9
30.392649 -8.3506279 0.23494244 7
30.300808 19.845261 0.29072869 7.5
30.24052 19.845558 0.43916464 8
30.289349 19.732605 0.66881835 8
30.279242 19.788139 0.96317446 8.5
30.335924 45.344978 0.81511211 6
30.299585 30.487162 1.1075158 8
30.339863 39.417744 1.1096385 7
30.343279 58.984646 1.113533 6
30.275667 30.508123 1.243513 8
30.356663 34.554726 1.243046 8
30.366411 44.397572 1.3992833 7
30.274963 44.876331 1.3161528 7
30.242155 54.407005 1.334825 5
30.27519 54.783939 1.3344145 6
30.315109 19.640396 1.4522245 8
30.218971 30.479284 1.4665619 9
30.331156 44.823082 1.5032892 8
30.376451 54.196049 1.4609296 6
30.284315 54.300644 1.5224594 6.5
30.249043 54.504963 1.5238771 6.7070312
30.236298 54.683331 1.5218006 6.5
30.200508 55.283661 1.4578426 6
30.204092 55.730812 1.4514657 6
30.262535 57.538223 1.4239948 6
30.260601 57.896397 1.415494 6
30.2771 30.395973 1.622432 9
30.369396 44.412964 1.7147338 9
30.25227 44.662529 1.7770964 9
30.290878 44.894196 1.7430153 9.25
30.292587 54.167664 1.7694948 8
30.260857 54.314018 1.7384038 7.3611116
30.31953 54.437519 1.646837 7
30.252287 54.636948 1.6509106 7
30.318703 55.112831 1.6542294 7
30.330332 55.386639 1.6615127 7
30.289021 55.435234 1.6647999 7
30.307566 56.122425 1.6765184 7
30.294626 56.656994 1.6029427 6.6666665
30.328928 57.381077 1.7867295 7.3333335
30.382534 57.87886 1.6970804 7
30.286232 44.686634 1.9553118 10
30.346495 44.813137 1.8858728 10
30.336308 54.395775 1.8465331 8
30.318319 54.535522 1.8405027 7.75
30.317938 54.729996 1.8776629 7.9253092
30.254747 54.890003 1.9089823 7.9553819
30.209137 55.277275 1.8820449 8
30.290749 55.442314 1.8992735 8.0464287
30.232166 55.741177 1.8962259 8
30.263126 55.879322 1.8257577 7.6666665
30.270737 56.268471 1.8010596 7.5
30.383579 54.358723 2.0495477 9
30.278301 54.507492 2.0395646 9
30.273401 54.751907 2.1610138 10
30.364822 54.926411 2.067627 9.25
30.219528 55.197987 2.0279067 7.8333335
30.245068 55.467979 2.0505536 8.333334
30.37656 55.642151 2.1083784 9
30.282423 55.864288 2.1353674 9
30.351446 56.398666 2.1577396 9
30.369474 56.721375 2.1279764 8.75
30.392097 57.104408 2.2123017 9
30.559868 -9.0705109 -0.84147215 7
30.488323 3.0821962 -0.81077492 6
30.554626 -8.9783154 -0.62184429 7
30.571348 0.79935646 -0.78226322 6
30.446629 3.3833725 -0.61609292 6
30.510529 -9.0301075 -0.48437607 7
30.577402 0.84029102 -0.50610948 0
30.496109 3.4822311 -0.43534896 6
30.568108 9.662097 -0.44407618 6
30.535965 9.9309988 -0.42599779 6
30.457174 10.107389 -0.41394597 6
30.543688 14.144819 -0.4327381 5
30.553722 14.233448 -0.42632583 5
30.563288 3.3397961 -0.29426479 7.0833335
30.506317 -9.1084032 -0.078026012 7.875
30.468395 -9.205719 0.070659965 8
30.511974 -9.059166 0.048614331 8
30.595913 3.3650341 0.21201977 10
30.574102 19.789717 0.329294 7.3333335
30.545395 19.838737 0.45076382 8
30.53871 19.554482 0.999699 8
30.547094 30.527637 1.087792 8
30.457201 34.531937 1.1878657 8
30.549366 30.511501 1.2507137 8.0246906
30.402678 34.596622 1.3523027 8
30.450291 54.015396 1.3263074 5
30.519569 54.438263 1.3441421 6
30.409777 19.642834 1.4567387 8
30.405317 35.924431 1.4096406 8
30.509644 39.490814 1.4461664 8
30.564247 44.510277 1.4576294 7.875
30.572411 53.980408 1.4974231 5.75
30.452879 54.245998 1.5078378 6.8744421
30.597099 54.473011 1.4263815 6.3928571
30.46221 34.642174 1.676935 9
30.525932 44.432869 1.6305876 8.666667
30.489376 54.256649 1.6656581 7.1637983
30.544235 59.826935 1.6937726 7
30.553696 54.188019 1.8149303 8
30.529301 54.32291 1.8614488 8.375
30.524529 54.533417 1.8899435 8.1499996
30.480476 54.703346 1.8343191 8
30.569382 54.46241 2.0862663 9.5
30.534393 54.680298 2.0836844 9.5
30.585403 54.991455 2.0888638 8.666667
30.521656 55.032898 2.0701237 8
30.500456 59.860676 2.0540223 8
30.463604 56.972721 2.219085 9
30.503239 57.384323 2.2531934 9
30.625031 -8.6227942 -1.0422041 5
30.680895 0.12255192 -0.81798643 6
30.682329 0.30658817 -0.8076458 6
30.770771 1.0439472 -0.86864018 6
30.676517 1.2828245 -0.85111809 6
30.650473 1.4141817 -0.84126472 6
30.60136 2.9658308 -0.82006586 6
30.700478 -9.2248325 -0.62633491 7
30.678585 -8.9876232 -0.64734715 6.9934263
30.650932 -8.1742992 -0.71024513 6
30.650463 0.62678719 -0.79036713 6
30.620817 0.82650524 -0.48356107 1.3636364
30.760181 8.4172039 -0.52899641 6
30.729921 8.8120289 -0.50208622 6
30.651205 9.1701393 -0.47748262 6
30.626427 9.3998108 -0.46194875 6
30.644133 -8.7651634 -0.32206523 6
30.764223 12.717709 -0.27333236 6
30.754341 13.105657 -0.25432491 6
30.779285 13.41581 -0.23880157 6
30.762943 14.637368 -0.28551364 5.5
30.711884 -9.324337 -0.1617187 8
30.673964 -9.1250134 -0.048848595 7.9970293
30.748022 3.4355888 -0.11373664 8
30.784149 3.669769 -0.12628809 7.875
30.750134 14.676427 -0.18056184 6
30.724419 14.968907 -0.16814107 6
30.739153 15.164421 -0.15932167 6
30.722755 -9.1354876 0.075163007 7.9690757
30.693834 3.4010296 0.046084613 9
30.774099 3.6588774 0.057189196 9
30.654236 -8.3253403 0.22257209 7
30.765236 3.4968052 0.20832652 10
30.718233 3.6911192 0.22883078 10
30.649393 19.761473 0.53831166 8
30.646955 19.868311 0.57165599 8
30.664415 45.516212 0.79151702 6
30.689898 19.694456 0.87071937 8
30.795065 30.681337 0.99862915 7
30.702961 30.877911 0.89919043 7
30.64267 30.435991 1.1031944 8
30.741737 34.337006 1.0794133 8
30.689842 34.491222 1.137355 8
30.697529 39.494644 1.0704175 7
30.684284 39.615005 1.092142 7
30.730305 44.367455 1.1864576 7
30.7591 30.544857 1.3176761 8
30.746988 34.376652 1.3841455 9
30.645157 34.481247 1.3695145 8.75
30.794144 36.24168 1.2638156 8
30.773499 39.591606 1.3754053 8
30.752125 39.606232 1.3427123 8
30.770454 44.273384 1.3751948 8
30.628693 44.414104 1.264273 7
30.720905 53.964729 1.3140062 5
30.734884 54.285759 1.3513234 5.5
30.722282 19.615303 1.4680998 8
30.616386 36.150185 1.4159342 8.25
30.622566 39.481239 1.435042 8
30.766527 39.608139 1.5247614 8
30.781483 44.249069 1.5389096 8.5
30.648304 49.857151 1.4359682 0.75
30.688383 54.120644 1.4861305 7
30.673592 54.32066 1.4572804 6.125
30.701561 30.45878 1.6607538 9
30.677092 34.622959 1.6592693 9
30.784908 44.189846 1.7456486 9
30.602787 44.405209 1.6984125 9
30.669302 53.964516 1.698071 8
30.664238 54.191944 1.7752082 8
30.744843 54.326523 1.6857655 7.125
30.782707 54.192532 1.995487 9
30.674564 54.327263 1.8737686 8.0625
30.688942 54.546436 1.8314824 8
30.644951 54.267181 2.0172749 9
30.689705 54.538849 2.1092744 9.833334
30.929667 -9.0517254 -1.3338463 7
30.871136 -0.20207405 -0.83318722 6
30.93577 0.66134071 -0.89693201 6
30.897434 0.84791183 -0.88270235 6
30.86927 2.6385937 -0.84634256 6
30.858814 -9.2127991 -0.62625933 7
30.91011 -9.0759964 -0.69516492 7
30.914108 -8.9937124 -0.63073957 7
30.987093 -8.1691513 -0.72297448 6
30.88512 8.1445007 -0.54838854 6
30.814304 8.4083681 -0.52996176 6
30.878054 3.0726104 -0.31364876 7
30.841547 3.509418 -0.32369342 6.6666665
30.806644 3.73246 -0.26773441 7
30.9674 11.891253 -0.3124086 6
30.870796 12.313913 -0.29206014 6
30.851006 13.8486 -0.21682283 6
30.866192 14.721378 -0.37383714 5
30.963085 -9.3181477 -0.16708094 8
30.906263 -9.1082325 -0.072559848 7.9994135
30.874561 2.9929914 -0.084316403 8
30.944389 3.3474634 -0.11983831 7.875
30.865149 14.316638 -0.19464006 6
30.976572 19.518732 -0.019594014 8
30.839693 19.854761 -0.0093719065 8
30.869085 2.9850264 0.14950407 9
30.930676 3.044071 0.032622337 8.5
30.910625 3.2850089 0.12948877 8.833334
30.953598 -8.3079157 0.2082648 7
30.871853 19.37752 0.26822168 8
30.895044 19.798002 0.36334813 7
30.957802 19.808916 0.35795537 8
30.955509 19.76849 0.53920126 8
30.85494 19.826233 0.45156509 8
30.987617 30.951445 0.79453957 7
30.921312 45.641716 0.77262616 6
30.881554 30.526739 0.99160016 7
30.947821 30.885719 0.88306344 7
30.920124 36.298248 0.95592368 7
30.981478 30.492588 1.0813971 7.8356481
30.846897 39.387634 1.1066689 7
30.845671 39.696854 1.0721425 7
30.824219 30.501385 1.2252948 8
30.823429 34.270142 1.2582251 8
30.831589 34.474518 1.3580937 8.75
30.908215 36.187439 1.3251157 8
30.975599 36.209034 1.3902149 8
30.918404 43.866829 1.3050172 7.3499999
30.921856 44.057789 1.2607318 7
30.955086 44.280411 1.2692834 7
30.99131 54.004913 1.299212 5
30.815611 54.343372 1.393373 6
30.91448 54.586159 1.2692398 6
30.936163 19.265343 1.4427443 8
30.94503 30.524021 1.554285 9
30.833223 34.588467 1.5020342 9
30.994209 36.235672 1.5555103 9
30.981897 39.345367 1.4318249 8
30.888786 39.465412 1.423918 8
30.814533 39.611565 1.4111122 8
30.898314 43.823593 1.4645742 8
30.846523 44.165108 1.4726192 8
30.965792 44.246445 1.4907663 8.5
30.83028 54.140717 1.5299343 6.8125
30.878242 54.328629 1.4650669 6.083333
30.891705 54.405159 1.4928043 7
30.941534 59.740433 1.5075575 7
30.960327 30.44508 1.6377573 9
30.99641 34.544273 1.6313663 9
30.975584 39.567375 1.6275489 9
30.900249 43.805557 1.7174474 9
30.923847 44.075397 1.706847 9
30.93778 44.289234 1.741174 9.7870369
30.907856 53.966003 1.6130322 8
30.854774 54.136536 1.6328015 7.125
30.853928 54.294365 1.753886 8
30.943119 54.154743 1.9240836 9
30.940601 54.326851 1.8831468 8.25
30.876896 54.295872 2.0307395 9
30.805254 54.740471 2.1449568 9
30.945116 55.20639 2.0896885 8
30.877869 59.685043 2.0210226 8
31.087856 -9.0587521 -1.3305495 7
31.006241 -8.611928 -1.0516331 5
31.069622 -9.0801353 -0.85672987 7.125
31.165083 -1.0671387 -0.8785491 6
31.130735 -0.90084076 -0.8693921 6
31.038761 -0.60475254 -0.85360801 6
31.013084 -0.56772041 -0.8518827 6
31.177919 0.17069054 -0.9336282 6
31.070938 0.47418213 -0.91051149 6
31.042095 -9.0135021 -0.66871971 6.9898548
31.132071 -8.9790993 -0.6591655 7
31.012388 -9.0395966 -0.57699811 7
31.159653 0.97755849 -0.41392013 1.4090909
31.027916 7.8983479 -0.56626767 6
31.053337 -9.1963749 -0.32435572 8
31.157091 -8.9737186 -0.33445275 8
31.055412 -8.7878437 -0.34405369 6
31.006084 3.3995445 -0.29948947 7
31.188 11.530069 -0.33551586 6
31.033524 11.814135 -0.31560847 6
31.022743 14.939154 -0.34936705 5
31.03381 15.02795 -0.34312943 5
31.027294 -9.1499386 -0.048281897 8
31.191071 19.494139 -0.035606682 8
31.074566 -9.0741825 0.10235447 7.8789062
31.010324 -8.8817616 0.071925163 7
31.003376 19.49951 0.16813833 8
31.172785 3.8010046 0.28810313 10
31.105473 19.385048 0.37678733 7
31.117062 19.464832 0.32378381 7.5
31.100044 19.381617 0.53551984 8
31.099392 19.423599 0.52568555 8
31.124754 19.34222 0.66680753 8
31.089634 19.413692 0.63866103 8
31.051813 45.72105 0.76353669 6
31.184196 19.147255 0.95163178 8
31.109447 19.342648 0.91772193 8.75
31.109179 19.437382 0.93783271 8.75
31.015804 30.922083 0.86092699 7
31.125809 31.051552 0.80862093 7
31.147346 34.340328 0.96031129 7
31.096725 30.484066 1.1140277 8
31.09864 34.350792 1.0410595 7.25
31.078339 34.523933 1.1377788 8
31.115831 36.253288 1.0254667 7
31.103823 39.666168 1.0480191 7
31.115692 44.293045 1.1624968 7
31.028662 30.528349 1.28301 8.1527786
31.024612 34.289761 1.3256124 8.1111107
31.026482 34.494164 1.3522651 8.625
31.110619 34.609116 1.3184578 8
31.149395 39.566738 1.3490396 8
31.183699 43.755875 1.2014904 7
31.133183 44.355625 1.3594378 8
31.00058 53.961586 1.3827643 5.3333335
31.067278 54.378159 1.3221979 6.5
31.000933 54.5014 1.2970265 5
31.096056 39.520649 1.4484918 8
31.101475 44.180962 1.4927251 8
31.129808 44.317886 1.5541705 9
31.010838 54.121021 1.5249375 7
31.036293 54.234352 1.5214577 6.9823828
31.113544 36.16589 1.6345057 9
31.071321 36.214561 1.6378915 9
31.13282 43.791679 1.7001189 9
31.088898 44.149902 1.725171 9
31.038895 44.284626 1.7270741 9
31.174212 53.960243 1.6708827 8
31.058979 54.126633 1.7209318 8
31.115986 54.241371 1.6872475 8
31.07296 54.483456 1.6252317 7
31.148245 59.766029 1.7540438 7.5
31.021175 54.178089 1.8427665 8.5
31.083763 54.256542 1.8725975 8.2878218
31.033449 54.5452 1.8332742 7.958333
31.070511 54.315529 2.022572 9.25
31.093063 54.663177 2.0641336 9.333334
31.168968 55.255772 2.0982869 8
31.028315 59.745792 2.0098794 8
31.298439 -8.8828135 -0.81489855 7
31.322315 -1.3246794 -0.89146739 6
31.294285 0.079754353 -0.94004714 6
31.245296 -9.2266073 -0.62776089 7
31.283785 -9.0976057 -0.72035396 7
31.262035 -8.1764641 -0.7340194 6
31.211571 -9.0584145 -0.58169234 7
31.350502 -8.9305639 -0.51534355 7
31.385075 3.544481 -0.25727248 7
31.375153 3.758729 -0.23192248 7
31.385443 10.885565 -0.3609347 6
31.380211 11.110645 -0.3483637 6
31.276466 11.348833 -0.34063321 6
31.228804 15.453171 -0.30363712 5
31.294043 -9.3264303 -0.17417061 8
31.355473 -9.1169519 -0.058448952 7.8746181
31.348148 -8.9800262 -0.16736187 8
31.245577 3.8474848 -0.059347138 8
31.258585 -9.0629234 0.13913706 8
31.357548 -8.3041153 0.18870425 7
31.359777 3.7868438 0.13145554 9.1875
31.290222 19.456821 0.31678468 7.5
31.308418 19.471611 0.48105937 8
31.26503 30.974567 0.68124378 7
31.341707 45.920467 0.7440412 6
31.398804 19.150064 0.94488454 8
31.343479 30.892851 0.86184001 7
31.306633 36.263847 0.98582917 7
31.294491 30.600079 1.1931788 8
31.384005 34.288544 1.0603828 8
31.351868 34.444397 1.128493 8
31.36245 39.644047 1.0625849 7
31.277401 43.593735 1.1925349 7
31.205856 43.727455 1.1997683 7
31.333012 30.498764 1.2894092 8.0794754
31.278519 36.186245 1.3369868 8.125
31.356464 43.655861 1.2122216 7
31.362183 54.116348 1.3887844 7
31.27014 54.366646 1.3657204 6
31.290991 54.432934 1.2839907 5
31.366634 30.533157 1.4914708 9
31.217243 34.268032 1.5121517 9
31.340324 34.504478 1.5222731 9
31.293774 39.444092 1.4670528 8
31.306107 39.628284 1.4489958 8
31.292759 43.724236 1.4358952 8
31.307669 53.944794 1.5640188 7
31.315556 54.126335 1.4790798 6.9958334
31.285192 54.283203 1.544119 6.75
31.236227 54.426311 1.4945863 6.25
31.304512 59.763874 1.4426553 7
31.223465 34.558167 1.6139824 9
31.343966 36.181908 1.6160269 9
31.301434 43.872147 1.6343437 9
31.25037 53.986561 1.667769 8
31.257923 54.175694 1.7431309 8
31.32729 54.347584 1.7255757 8
31.295691 54.576523 1.7364284 7.6666665
31.304731 54.335114 1.8956743 9
31.313007 54.487656 1.8986551 8.5555553
31.327545 54.600334 1.8230784 8
31.345036 59.70903 1.8791263 8
31.20837 54.313511 2.0007696 9
31.265007 54.579487 2.0967689 9
31.264107 54.84446 2.0270612 9
31.321697 59.726009 2.0239453 8
31.505497 -9.0670099 -1.3209591 7
31.597334 -0.72165966 -1.0023547 6
31.490417 -9.0706081 -0.85355812 7.0625
31.589294 -2.0016613 -0.92818367 6
31.474642 -1.7338648 -0.91365492 6
31.44426 -1.5055065 -0.90050799 6
31.491018 -0.26835823 -0.96655548 6
31.465954 -0.11399174 -0.95436203 6
31.482407 -9.0153637 -0.66525948 6.9929981
31.503342 -9.0525265 -0.59510988 7
31.487274 -9.1996202 -0.34388727 8
31.407021 -8.9784431 -0.21176106 7
31.412556 3.5669739 -0.25708815 7
31.51284 3.8277354 -0.23723395 7
31.505259 10.66371 -0.37192613 6
31.544468 10.964584 -0.34990644 6
31.476566 15.869226 -0.26153415 5
31.454762 -9.1419458 -0.11203739 8
31.462479 3.7774019 -0.11758935 7.7222223
31.535662 3.857897 -0.0753479 8
31.554745 19.488997 -0.062669933 8
31.459309 -9.0392494 0.10965758 7.7604165
31.570303 3.5201886 0.14231917 8.75
31.539173 3.8611035 0.088069052 9
31.445934 3.4243855 0.20452812 9
31.46521 3.7525277 0.23631454 9.5
31.477753 19.421944 0.34877276 7.041667
31.555592 19.286963 0.57096553 8
31.542561 19.446205 0.42262831 8
31.475843 19.346676 0.67082608 8.166666
31.453808 30.98667 0.76494336 7
31.401281 19.372324 0.92202187 8.9722223
31.454853 19.442272 0.84751999 9
31.486374 30.951504 0.83901012 7
31.550266 31.000015 0.85093486 7
31.463352 36.300457 0.94735736 7
31.49873 30.497425 1.1311433 7.9725695
31.509958 34.346653 1.0622131 7.375
31.425697 34.448586 1.1139467 8
31.592758 36.283184 1.0186669 7
31.494095 39.560417 1.028128 7
31.518997 39.653049 1.0291482 7
31.568993 30.426384 1.2440134 8
31.437401 34.32795 1.3407702 9
31.454208 34.429455 1.3414481 9
31.547832 39.318054 1.3899528 8
31.511683 39.582191 1.3356669 8
31.550255 43.584808 1.223983 7
31.539085 43.698578 1.2832773 7.3666668
31.415224 54.322342 1.3613492 6
31.471416 19.246323 1.4651095 8
31.44418 30.546822 1.5026853 9
31.439135 34.285034 1.485425 8.75
31.432076 34.49752 1.4013395 8.833334
31.507259 39.515026 1.4703901 8
31.594803 43.719082 1.4160163 8
31.477669 54.148026 1.5161859 7
31.46851 54.281807 1.5296476 7
31.495836 54.409103 1.5572672 7
31.407522 59.815201 1.5505906 7
31.488844 43.83902 1.6275049 9
31.521055 54.126102 1.7117455 8
31.506718 54.209442 1.7292399 7.5
31.559408 54.4939 1.7198335 8
31.546551 54.742386 1.7288545 8
31.539358 55.251968 1.7628505 8
31.425701 54.304005 1.8380544 8.0602655
31.455513 54.500359 1.8995974 8.25
31.590193 55.166142 1.8088174 8.25
31.563644 57.962109 1.8411368 8
31.567986 58.08799 1.8454769 8
31.534813 59.825195 1.9269702 8
31.498512 54.52985 2.07373 9.5
31.450466 54.602978 2.0573032 9
31.458942 55.296898 2.0819669 8.5
31.590166 59.742264 2.0968738 8
31.598213 59.773003 2.4338052 8
31.722456 -1.0334721 -1.026966 6
31.63974 -2.0976877 -0.93333447 6
31.61812 -0.66477489 -0.99769962 6
31.736513 -9.2443237 -0.6298368 7
31.742821 0.86345303 -0.34037983 1.1590909
31.738998 3.5752614 -0.26106045 7
31.745016 3.6332157 -0.25977957 7
31.628136 10.397511 -0.38546315 6
31.767727 10.621678 -0.3550337 6
31.625832 10.854713 -0.35118246 6
31.71911 16.166588 -0.22696903 5
31.723572 -9.3347015 -0.18315102 8
31.7174 -9.0809164 -0.10445268 7.9991798
31.654762 3.4871311 -0.036017865 8
31.786913 14.079702 -0.1721141 6
31.772381 14.377109 -0.16447031 6
31.697388 14.549097 -0.16264263 6
31.628288 14.768749 -0.15945205 6
31.690714 -9.0722694 0.13066897 8
31.626629 -8.3295059 0.17524844 7
31.630352 3.5358841 0.19507536 9
31.786787 -9.0892448 0.26893067 8
31.72757 19.46841 0.46853524 8
31.798939 19.370636 0.69152904 8.375
31.618847 46.118946 0.72549653 6
31.736343 46.278107 0.72003251 6
31.76947 46.400883 0.72109723 6
31.656652 19.148632 0.93649495 8
31.697908 30.870232 0.94585729 7
31.713314 36.265274 0.97935826 7
31.651083 30.581545 1.0240806 8
31.780222 34.492435 1.0961533 8
31.694757 39.538593 1.0578375 7
31.768631 59.055923 1.1307235 6
31.677071 59.52713 1.1220547 6
31.755405 30.510498 1.2894833 8.1968746
31.784189 49.657074 1.3942101 1.4166666
31.747536 54.263218 1.3001485 6.5
31.781654 54.941139 1.385354 7
31.760061 55.306767 1.3895743 7
31.755711 30.455971 1.4695933 9
31.766424 36.189438 1.4110552 8.5
31.677269 39.499443 1.4604589 8
31.671864 39.60783 1.4722099 8
31.712139 43.473732 1.4763073 8.208333
31.681274 54.241245 1.5316575 6.895833
31.768332 54.528008 1.5098337 7
31.734138 54.683418 1.4527214 6.6250482
31.735912 54.87302 1.4716604 7
31.702576 55.065884 1.464231 7
31.732645 55.400372 1.5251052 7
31.779005 56.542667 1.5397429 7
31.76737 57.607697 1.5543917 7
31.785486 58.078377 1.530596 7
31.752279 58.251232 1.5134635 7
31.631859 43.419819 1.653546 9
31.666283 54.1819 1.6622249 8
31.689674 54.336395 1.760131 8.0974703
31.71431 54.408684 1.7755816 8
31.709881 54.758217 1.7160647 8
31.644875 54.821754 1.7547512 8
31.701874 55.325005 1.7487298 8
31.787638 56.321907 1.7833079 8
31.731777 58.163704 1.7998649 8
31.673962 54.320457 1.8820262 8.75
31.681139 54.500072 1.8719397 8.5727577
31.735302 54.628414 1.9340726 8.9375
31.766582 55.316154 1.9903699 9
31.689661 57.071106 1.8140234 8
31.766548 57.332542 1.8675995 8
31.66573 57.671398 1.8280222 8
31.7428 58.153267 1.8696527 8
31.778685 54.591156 2.0638306 10
31.626122 54.633736 2.0711055 9
31.793608 55.069588 2.1200569 10
31.678936 55.420708 2.0761795 8.5
31.760643 55.903259 2.1027403 9
31.638474 57.192978 2.1437898 9
31.777966 59.766644 2.0886624 8
31.706657 57.716499 2.2062392 9
31.693947 57.958073 2.2256954 9
31.657343 59.770111 2.300741 8
31.900663 -9.0696325 -1.3115363 7
31.87656 -8.4350443 -1.0625457 5
31.905584 -1.363935 -1.053134 6
31.817373 -9.0101089 -0.8731823 6.125
31.87941 -9.0145054 -0.69237113 6.9950566
31.988796 -9.0877562 -0.5409742 7
31.838268 8.0552616 -0.56251782 6
31.913284 -9.105031 -0.36858946 8
31.858328 3.9324949 -0.26607031 7
31.811968 10.470967 -0.36501244 6
31.982765 12.557301 -0.21075413 6
31.955643 12.873871 -0.20180368 6
31.881456 16.40551 -0.20179519 5
31.901865 -9.1070709 -0.1159057 8
31.903566 3.942621 -0.13746825 7.75
31.968073 13.076534 -0.19523081 6
31.912868 13.302197 -0.19024727 6
31.847162 13.757543 -0.17911796 6
31.982306 19.491755 -0.094329938 8
31.892597 -9.0720863 0.18367857 7.9414062
31.943872 3.9436729 0.075627267 9
31.955194 4.1619363 0.084667385 9
31.90197 3.9186749 0.24975827 10
31.855961 19.399752 0.33331943 7
31.856712 19.431015 0.3788732 7.0625
31.866457 30.985077 0.75492108 7
31.872803 46.62854 0.71899033 6
31.810205 19.379494 0.87053591 9
31.827398 30.909658 0.85012436 7
31.987577 34.300777 0.93679738 7
31.930128 34.552479 0.97740889 8
31.904341 36.259083 0.93929434 7
31.888676 30.541138 1.1036168 7.9752603
31.913065 34.284218 1.119141 7.6875
31.956486 39.616219 1.0510216 7
31.912024 43.014618 1.1228007 7
31.934189 43.365257 1.1959128 7
31.906038 58.62793 1.1376069 6
31.846832 59.601139 1.117317 6
31.951588 30.461535 1.2752848 8.5
31.844736 30.670767 1.2299232 9
31.868713 34.255432 1.3026197 8.25
31.835056 34.474274 1.2734662 8.4666672
31.986572 36.174957 1.2047408 8
31.856373 39.647663 1.3785151 8
31.961994 42.985847 1.3817443 8
31.803106 49.653591 1.3917153 1.5
31.815729 54.657707 1.3815037 7
31.823477 55.777287 1.3921142 7
31.947762 57.489922 1.2680062 7
31.984756 58.500732 1.2717351 7
31.856758 19.246454 1.4826403 8
31.912836 30.412184 1.4530389 9
31.987204 36.216457 1.4742684 9
31.800106 54.365051 1.5446485 7
31.925312 54.590336 1.5258839 7
31.828398 54.746094 1.4840953 7
31.968803 54.88364 1.5275263 7
31.865213 55.116974 1.5234294 7
31.80167 55.361889 1.4649017 7
31.847151 55.495384 1.5237465 7.0034723
31.897228 55.746338 1.5225304 7
31.819569 55.93082 1.5259458 7
31.826279 56.292236 1.5105129 7
31.831066 56.681858 1.4968573 7
31.83787 56.972179 1.515357 7
31.823824 57.399109 1.5265683 7
31.84617 57.500343 1.4460386 7
31.816296 57.722504 1.53746 7
