# .PCD v0.7 - Point Cloud Data file format
VERSION 0.7
FIELDS x y z rgb
SIZE 4 4 4 4
TYPE F F F F
COUNT 1 1 1 1
WIDTH 1039
HEIGHT 1
VIEWPOINT 0 0 0 1 0 0 0
POINTS 1039
DATA ascii
-5.0444403 26.28019 0.45512146 1.0989942e-38
-5.020998 28.921038 0.4323611 1.0989942e-38
-5.0193691 29.082991 0.46870589 1.0989942e-38
-4.8920999 19.625771 -0.31525099 1.0989942e-38
-4.80268 26.262112 -0.21312723 1.0989942e-38
-4.936954 26.526625 -0.22099929 1.0989942e-38
-4.9058461 28.766968 -0.27905706 1.0989942e-38
-4.9233131 30.56653 -0.32353967 1.0989942e-38
-4.9954748 30.786041 -0.2659241 1.0989942e-38
-4.9166002 19.575819 -0.16042039 1.0989942e-38
-4.9304776 19.644632 -0.16008584 1.0989942e-38
-4.8925972 26.361401 -0.044592727 1.0989942e-38
-4.9365954 28.870239 -0.031601209 1.0989942e-38
-4.9562302 19.516329 0.15418507 1.0989942e-38
-4.9450121 19.614574 0.05500789 1.0989942e-38
-4.9134026 26.34972 0.18208671 1.0989942e-38
-4.9972606 26.470352 0.040402289 1.0989942e-38
-4.9473963 28.908329 0.15026966 1.0989942e-38
-4.8129444 19.511044 0.21919219 1.0989942e-38
-4.9734697 19.696737 0.30686614 1.0989942e-38
-4.9734359 30.472521 0.29634961 1.0989942e-38
-4.9232392 30.838017 0.31755066 1.0989942e-38
-4.9782939 28.872606 0.44213134 1.0989942e-38
-4.8674212 30.059177 0.444855 1.0989942e-38
-4.7406669 19.341732 -0.31420445 1.0989942e-38
-4.7194514 26.182858 -0.2949712 1.0989942e-38
-4.6874061 30.070618 -0.34525114 1.0989942e-38
-4.7148075 30.216644 -0.29829448 1.0989942e-38
-4.7336125 19.313667 -0.10982015 1.0989942e-38
-4.7029762 26.180178 -0.042288218 1.0989942e-38
-4.7549744 26.228291 -0.12752832 1.0989942e-38
-4.6604328 30.070364 -0.078255445 1.0989942e-38
-4.6794372 30.239458 -0.089087382 1.0989942e-38
-4.7333689 19.353228 0.12882099 1.0989942e-38
-4.7849126 19.482674 0.10966767 1.0989942e-38
-4.7000256 26.263536 0.12925516 1.0989942e-38
-4.6635332 28.996054 0.13497998 1.0989942e-38
-4.6639948 29.912277 0.13404864 1.0989942e-38
-4.746295 30.1297 0.15033489 1.0989942e-38
-4.7182994 19.372398 0.26977921 1.0989942e-38
-4.6611152 26.265434 0.3031449 1.0989942e-38
-4.7402239 28.954109 0.29543281 1.0989942e-38
-4.6992078 30.07546 0.29230055 1.0989942e-38
-4.6559949 30.270639 0.29562461 1.0989942e-38
-4.6338472 29.841171 0.47756383 1.0989942e-38
-4.6583323 30.079037 0.44247344 1.0989942e-38
-4.6455879 30.248852 0.47648516 1.0989942e-38
-4.4472799 19.108589 -0.29069161 1.0989942e-38
-4.5275545 29.859873 -0.24399409 1.0989942e-38
-4.506237 30.241835 -0.30421472 1.0989942e-38
-4.4602737 19.159199 -0.16014943 1.0989942e-38
-4.484786 29.849382 -0.099116996 1.0989942e-38
-4.5781574 29.777758 0.17415129 1.0989942e-38
-4.5256634 29.902271 0.070160121 1.0989942e-38
-4.5319204 19.047071 0.30151421 1.0989942e-38
-4.5288515 18.805346 0.43507367 1.0989942e-38
-4.559227 19.045214 0.4550674 1.0989942e-38
-4.5541735 29.745308 0.40299237 1.0989942e-38
-4.201118 25.39027 -0.35010156 1.0989942e-38
-4.2339301 26.247133 -0.32545811 1.0989942e-38
-4.2126284 26.537285 -0.35309565 1.0989942e-38
-4.2310662 26.689423 -0.31275806 1.0989942e-38
-4.2465181 27.095875 -0.30117798 1.0989942e-38
-4.2123413 27.281639 -0.29585421 1.0989942e-38
-4.2281055 27.484852 -0.33082816 1.0989942e-38
-4.2258954 27.667814 -0.28865802 1.0989942e-38
-4.2751179 27.966887 -0.27658194 1.0989942e-38
-4.2470241 28.144569 -0.27412698 1.0989942e-38
-4.2946091 28.398754 -0.26454961 1.0989942e-38
-4.2414494 28.455158 -0.33229852 1.0989942e-38
-4.2566109 28.893784 -0.32041252 1.0989942e-38
-4.2568412 29.147818 -0.31083009 1.0989942e-38
-4.2391434 29.307592 -0.25999513 1.0989942e-38
-4.2756615 29.584238 -0.29553717 1.0989942e-38
-4.2474003 29.751736 -0.2605536 1.0989942e-38
-4.2354126 29.928051 -0.2682392 1.0989942e-38
-4.2679129 30.045193 -0.2921983 1.0989942e-38
-4.2274122 18.814222 -0.16093996 1.0989942e-38
-4.2163916 27.885054 -0.12803659 1.0989942e-38
-4.2040854 28.084028 -0.12772802 1.0989942e-38
-4.2191191 28.341793 -0.11106841 1.0989942e-38
-4.2509222 28.763565 -0.12786064 1.0989942e-38
-4.2157469 28.94347 -0.12656294 1.0989942e-38
-4.288085 29.122509 -0.010386363 1.0989942e-38
-4.2414341 29.276848 -0.064041317 1.0989942e-38
-4.2746687 29.495537 -0.039423496 1.0989942e-38
-4.239706 29.719711 -0.063015074 1.0989942e-38
-4.2517304 29.913599 -0.12163188 1.0989942e-38
-4.2275662 30.017529 -0.027895903 1.0989942e-38
-4.3264446 19.018505 0.046149462 1.0989942e-38
-4.2034101 26.492901 0.066185832 1.0989942e-38
-4.2127094 26.911367 0.052311599 1.0989942e-38
-4.2264576 27.348444 0.038196951 1.0989942e-38
-4.2141809 27.903442 0.1121459 1.0989942e-38
-4.2338996 28.193169 0.1563642 1.0989942e-38
-4.2467651 28.254715 0.082421705 1.0989942e-38
-4.2604122 28.648067 0.066738844 1.0989942e-38
-4.2493057 29.096973 0.082940593 1.0989942e-38
-4.2259288 29.288597 0.13423195 1.0989942e-38
-4.2385368 29.494534 0.17834611 1.0989942e-38
-4.2411194 29.875755 0.11694136 1.0989942e-38
-4.2879138 30.069365 0.013505714 1.0989942e-38
-4.2855372 18.84042 0.36205688 1.0989942e-38
-4.2011662 26.219971 0.30293083 1.0989942e-38
-4.219142 26.882435 0.27098331 1.0989942e-38
-4.2144804 27.078299 0.23340106 1.0989942e-38
-4.2274799 27.701067 0.26329705 1.0989942e-38
-4.2646427 27.927795 0.32771468 1.0989942e-38
-4.2705965 28.118383 0.30265978 1.0989942e-38
-4.257782 28.558981 0.26888892 1.0989942e-38
-4.2212925 28.686241 0.39468089 1.0989942e-38
-4.2313266 28.864944 0.34161142 1.0989942e-38
-4.2575884 29.135326 0.35569164 1.0989942e-38
-4.2728405 29.35788 0.25016394 1.0989942e-38
-4.2726684 29.43696 0.29320434 1.0989942e-38
-4.2677021 29.743883 0.26435515 1.0989942e-38
-4.262784 29.909927 0.26978096 1.0989942e-38
-4.2801218 30.102131 0.26635146 1.0989942e-38
-4.2000246 26.940996 0.41151032 1.0989942e-38
-4.2086434 27.877934 0.40366673 1.0989942e-38
-4.2226086 28.048973 0.46166605 1.0989942e-38
-4.2115097 28.242393 0.44156936 1.0989942e-38
-4.247324 28.465046 0.49441391 1.0989942e-38
-4.2132668 28.91164 0.48076466 1.0989942e-38
-4.3148713 29.070572 0.42690432 1.0989942e-38
-4.2621469 29.301025 0.47713113 1.0989942e-38
-4.2668762 29.903465 0.47644481 1.0989942e-38
-4.04914 24.134502 -0.27314204 1.0989942e-38
-4.0580115 24.498657 -0.27332059 1.0989942e-38
-4.1003799 24.671902 -0.30381519 1.0989942e-38
-4.0949764 24.925686 -0.28980032 1.0989942e-38
-4.0780935 25.153593 -0.26410469 1.0989942e-38
-4.0683384 25.35449 -0.25255096 1.0989942e-38
-4.0715437 25.456512 -0.21067624 1.0989942e-38
-4.1333275 25.728172 -0.28795063 1.0989942e-38
-4.1164751 25.880512 -0.2395432 1.0989942e-38
-4.1529989 26.107391 -0.27984893 1.0989942e-38
-4.0772648 26.394093 -0.22897987 1.0989942e-38
-4.1174545 26.510471 -0.21829736 1.0989942e-38
-4.1347303 26.678898 -0.21967348 1.0989942e-38
-4.1173115 26.872747 -0.26558807 1.0989942e-38
-4.145649 27.063345 -0.20749307 1.0989942e-38
-4.1576347 27.360273 -0.2446613 1.0989942e-38
-4.1730609 27.569193 -0.23593631 1.0989942e-38
-4.1676469 27.778015 -0.24636158 1.0989942e-38
-4.1611395 27.990089 -0.25234509 1.0989942e-38
-4.1703777 28.111862 -0.29989576 1.0989942e-38
-4.1432724 28.245646 -0.2996453 1.0989942e-38
-4.146698 28.575661 -0.21003224 1.0989942e-38
-4.1801453 28.686886 -0.28954908 1.0989942e-38
-4.1768136 29.04563 -0.20737618 1.0989942e-38
-4.1947899 29.485897 -0.23437339 1.0989942e-38
-4.1552811 29.948357 -0.31882066 1.0989942e-38
-4.0849257 30.029921 -0.32973695 1.0989942e-38
-4.1360202 31.05678 -0.29172456 1.0989942e-38
-4.1021557 18.854868 -0.16234474 1.0989942e-38
-4.0427761 24.081322 -0.061194725 1.0989942e-38
-4.0642195 24.390892 -0.084172137 1.0989942e-38
-4.0978975 24.88855 -0.11358572 1.0989942e-38
-4.0455093 25.100155 -0.19434431 1.0989942e-38
-4.0821037 25.240862 -0.14389825 1.0989942e-38
-4.0692282 25.50831 -0.068821996 1.0989942e-38
-4.0802288 25.714954 -0.1048885 1.0989942e-38
-4.0927649 25.89072 -0.02965845 1.0989942e-38
-4.0984063 26.142017 -0.10636356 1.0989942e-38
-4.0915623 26.331465 -0.10489047 1.0989942e-38
-4.0887923 26.494474 -0.012185585 1.0989942e-38
-4.0988808 26.687023 -0.064874262 1.0989942e-38
-4.1419621 26.812672 -0.032743588 1.0989942e-38
-4.1661139 27.02644 -0.12637806 1.0989942e-38
-4.1359234 27.231483 -0.02383608 1.0989942e-38
-4.1729431 27.478306 -0.11058202 1.0989942e-38
-4.1831083 27.749727 -0.030100286 1.0989942e-38
-4.1732144 27.932211 -0.095251903 1.0989942e-38
-4.1760192 28.123264 -0.042592872 1.0989942e-38
-4.1871305 28.378368 -0.19526558 1.0989942e-38
-4.1841459 28.794304 -0.097134538 1.0989942e-38
-4.1780872 29.042376 -0.026380103 1.0989942e-38
-4.1922083 29.272186 -0.025794934 1.0989942e-38
-4.1007519 29.905674 -0.088551603 1.0989942e-38
-4.0949526 30.035217 -0.1569021 1.0989942e-38
-4.1225624 31.06032 -0.12712087 1.0989942e-38
-4.1874423 18.881592 0.043544799 1.0989942e-38
-4.0821028 23.989094 0.15746522 1.0989942e-38
-4.0502129 24.068752 0.10053113 1.0989942e-38
-4.0832243 24.246504 0.15732905 1.0989942e-38
-4.084116 24.581923 0.13180286 1.0989942e-38
-4.1173353 24.703884 0.11722807 1.0989942e-38
-4.110734 25.081944 0.13118507 1.0989942e-38
-4.0790758 25.568127 0.099412203 1.0989942e-38
-4.0093203 25.781118 0.14943045 1.0989942e-38
-4.0947027 25.910378 0.092663087 1.0989942e-38
-4.100771 26.022678 0.11054511 1.0989942e-38
-4.1050215 26.284538 0.11945139 1.0989942e-38
-4.116621 26.532848 0.15107834 1.0989942e-38
-4.0963821 26.717308 0.10039563 1.0989942e-38
-4.120101 26.871632 0.082850173 1.0989942e-38
-4.153306 27.129158 0.11024167 1.0989942e-38
-4.1491919 27.385916 0.1428383 1.0989942e-38
-4.1911573 27.535324 0.19511975 1.0989942e-38
-4.1043792 27.69305 0.098647997 1.0989942e-38
-4.1657419 27.841141 0.01185406 1.0989942e-38
-4.1585889 28.24641 0.10102286 1.0989942e-38
-4.13905 28.530434 0.080933928 1.0989942e-38
-4.0850992 28.996222 0.062685728 1.0989942e-38
-4.1711702 29.337301 0.011904106 1.0989942e-38
-4.138772 29.444792 0.089343846 1.0989942e-38
-4.1680889 29.855265 0.15332295 1.0989942e-38
-4.1073918 30.048275 0.1511202 1.0989942e-38
-4.0999117 30.20298 0.094159909 1.0989942e-38
-4.1663737 30.986719 0.13686194 1.0989942e-38
-4.0244565 31.257336 0.18200073 1.0989942e-38
-4.1614432 18.92555 0.25221989 1.0989942e-38
-4.0451956 24.119665 0.28872979 1.0989942e-38
-4.0948191 24.244696 0.23276515 1.0989942e-38
-4.0663476 24.512808 0.37522164 1.0989942e-38
-4.1115298 24.680962 0.2103646 1.0989942e-38
-4.1055622 24.895645 0.25645578 1.0989942e-38
-4.0811596 25.063744 0.23358494 1.0989942e-38
-4.1309052 25.356087 0.24944416 1.0989942e-38
-4.1239004 25.466904 0.24634695 1.0989942e-38
-4.1379948 25.671314 0.28023911 1.0989942e-38
-4.1365724 25.845316 0.27931729 1.0989942e-38
-4.062974 26.14839 0.35168076 1.0989942e-38
-4.1329966 26.318668 0.31483406 1.0989942e-38
-4.0754108 26.59738 0.31535965 1.0989942e-38
-4.1830711 26.645329 0.3292757 1.0989942e-38
-4.1328297 26.811398 0.30231845 1.0989942e-38
-4.1659975 27.033398 0.33470207 1.0989942e-38
-4.143187 27.286774 0.26633599 1.0989942e-38
-4.1797819 27.454908 0.36671746 1.0989942e-38
-4.1689363 27.714264 0.32342368 1.0989942e-38
-4.180892 28.141422 0.29342851 1.0989942e-38
-4.0986347 30.064383 0.33168623 1.0989942e-38
-4.1555147 30.99725 0.39829093 1.0989942e-38
-4.1515012 31.030701 0.31586689 1.0989942e-38
-4.1766615 18.764925 0.44603878 1.0989942e-38
-4.0031223 24.554152 0.49628264 1.0989942e-38
-4.0954227 24.892612 0.4959411 1.0989942e-38
-4.0285463 25.521954 0.48965549 1.0989942e-38
-4.1675768 26.723646 0.48250204 1.0989942e-38
-4.1524611 27.780437 0.48749185 1.0989942e-38
-4.1605225 28.027023 0.43069291 1.0989942e-38
-4.1188755 29.935928 0.47397405 1.0989942e-38
-4.1127987 31.17131 0.48090917 1.0989942e-38
-3.8506842 18.928453 -1.0684592 1.0989942e-38
-3.8435988 18.737106 -0.95515072 1.0989942e-38
-3.8862414 19.301529 -0.9282757 1.0989942e-38
-3.8754513 19.320118 -0.76167881 1.0989942e-38
-3.8181136 18.819107 -0.32220063 1.0989942e-38
-3.8433428 19.143396 -0.28268704 1.0989942e-38
-3.8488345 19.296112 -0.31062776 1.0989942e-38
-3.9622979 24.150181 -0.28313053 1.0989942e-38
-3.9489148 24.249577 -0.28267759 1.0989942e-38
-3.9947999 24.723459 -0.2834481 1.0989942e-38
-3.9264317 29.967178 -0.27648753 1.0989942e-38
-3.8695021 30.042561 -0.27681205 1.0989942e-38
-3.8569155 31.308044 -0.32407451 1.0989942e-38
-3.824142 18.664858 -0.13833039 1.0989942e-38
-3.8255498 18.813547 -0.17636243 1.0989942e-38
-3.8527422 19.033447 -0.1099315 1.0989942e-38
-3.8584695 19.305176 -0.11141913 1.0989942e-38
-3.9116988 24.186703 -0.080439545 1.0989942e-38
-3.9422357 24.590471 -0.082062967 1.0989942e-38
-3.9844193 24.837374 -0.083025448 1.0989942e-38
-3.9865525 25.189955 -0.027213752 1.0989942e-38
-3.8547301 29.938995 -0.018680818 1.0989942e-38
-3.9525533 31.282892 -0.077095203 1.0989942e-38
-3.8439312 18.766472 0.10474712 1.0989942e-38
-3.8503485 18.92194 0.093015581 1.0989942e-38
-3.8534424 19.342936 0.090895504 1.0989942e-38
-3.9729888 24.188948 0.089558281 1.0989942e-38
-3.8986897 24.313072 0.11983415 1.0989942e-38
-3.9424489 24.45322 0.11464977 1.0989942e-38
-3.9473329 24.661591 0.069133624 1.0989942e-38
-3.982676 24.812469 0.071512014 1.0989942e-38
-3.9706979 25.111347 0.030214798 1.0989942e-38
-3.9469252 25.524765 0.033507276 1.0989942e-38
-3.9959571 25.935139 0.043763444 1.0989942e-38
-3.9389136 26.351227 0.047526583 1.0989942e-38
-3.9529235 27.210697 0.053888321 1.0989942e-38
-3.9709454 28.120323 0.060564786 1.0989942e-38
-3.8991079 29.955557 0.12292144 1.0989942e-38
-3.8632202 30.053633 0.0022399276 1.0989942e-38
-3.9883404 31.273129 0.09191741 1.0989942e-38
-3.8117621 18.676945 0.22904681 1.0989942e-38
-3.8527646 18.88468 0.32365432 1.0989942e-38
-3.8499131 19.04858 0.27087319 1.0989942e-38
-3.8707018 19.278286 0.24342442 1.0989942e-38
-3.8698165 19.503521 0.34620506 1.0989942e-38
-3.9455791 24.093948 0.34472704 1.0989942e-38
-3.9545844 24.611376 0.30084354 1.0989942e-38
-3.9784701 25.063204 0.27176601 1.0989942e-38
-3.9456856 29.953669 0.27915311 1.0989942e-38
-3.9197476 31.251671 0.32131881 1.0989942e-38
-3.8451157 18.771423 0.44188184 1.0989942e-38
-3.852695 18.817781 0.46525472 1.0989942e-38
-3.8585758 19.220764 0.46559352 1.0989942e-38
-3.9925559 25.146828 0.41385883 1.0989942e-38
-3.860208 30.013849 0.48524374 1.0989942e-38
-3.839268 31.242012 0.45880476 1.0989942e-38
-3.6990659 18.733089 -0.26675576 1.0989942e-38
-3.7019305 19.360706 -0.25680509 1.0989942e-38
-3.7280483 29.95825 -0.24946658 1.0989942e-38
-3.6785731 30.030586 -0.23646958 1.0989942e-38
-3.7878728 31.270006 -0.33900571 1.0989942e-38
-3.7524934 18.69783 -0.10265385 1.0989942e-38
-3.7134404 18.922672 -0.035822108 1.0989942e-38
-3.7463582 19.274181 -0.043403845 1.0989942e-38
-3.7411606 19.44944 -0.013993464 1.0989942e-38
-3.7557364 29.943682 -0.080411956 1.0989942e-38
-3.7918234 18.718159 0.043083325 1.0989942e-38
-3.7397099 18.941311 0.18053003 1.0989942e-38
-3.7479184 29.946358 0.16890585 1.0989942e-38
-3.7928874 30.053026 0.15493308 1.0989942e-38
-3.7824926 18.726322 0.25531322 1.0989942e-38
-3.6814518 18.915192 0.32843286 1.0989942e-38
-3.7990899 19.160349 0.34629366 1.0989942e-38
-3.7057519 18.726006 0.44544801 1.0989942e-38
-3.7800159 18.931498 0.48078287 1.0989942e-38
-3.7948489 19.388844 0.43468195 1.0989942e-38
-3.612397 30.027941 0.46882328 1.0989942e-38
-3.4518485 18.901184 -1.0167825 1.0989942e-38
-3.4587803 18.740105 -0.22321315 1.0989942e-38
-3.4257956 19.366753 -0.26519188 1.0989942e-38
-3.4807029 24.134607 -0.27717495 1.0989942e-38
-3.4928179 29.981766 -0.32370833 1.0989942e-38
-3.4909673 18.724014 -0.086184792 1.0989942e-38
-3.4361115 24.130283 -0.11036017 1.0989942e-38
-3.5188892 29.919746 -0.17590189 1.0989942e-38
-3.4740772 30.050552 -0.18584055 1.0989942e-38
-3.4719534 30.785788 -0.061183073 1.0989942e-38
-3.4109693 18.779266 0.14812323 1.0989942e-38
-3.4367797 18.955683 0.17666532 1.0989942e-38
-3.4409013 19.302429 0.17583874 1.0989942e-38
-3.4375224 24.155695 0.18008713 1.0989942e-38
-3.4656906 24.279018 0.079088435 1.0989942e-38
-3.5465608 24.408474 0.17402026 1.0989942e-38
-3.4482398 29.945688 0.12728751 1.0989942e-38
-3.4508185 30.057501 0.039753299 1.0989942e-38
-3.4048724 30.762709 0.053101853 1.0989942e-38
-3.5751431 19.169895 0.30966729 1.0989942e-38
-3.4775324 24.163876 0.31366035 1.0989942e-38
-3.535666 29.965317 0.30005383 1.0989942e-38
-3.5490365 30.825865 0.25806278 1.0989942e-38
-3.542129 18.865522 0.47600639 1.0989942e-38
-3.5317082 29.961845 0.40626407 1.0989942e-38
-3.4103632 30.00486 0.45706382 1.0989942e-38
-3.2219567 18.747515 -0.32623199 1.0989942e-38
-3.2464197 19.340578 -0.28563708 1.0989942e-38
-3.3716059 24.16317 -0.20341399 1.0989942e-38
-3.3432319 29.957373 -0.22935048 1.0989942e-38
-3.2725956 30.032204 -0.24716972 1.0989942e-38
-3.3420811 18.878534 -0.051276095 1.0989942e-38
-3.3274601 19.293049 -0.13162395 1.0989942e-38
-3.2766101 24.269089 -0.034144774 1.0989942e-38
-3.2957039 29.955751 -0.076836161 1.0989942e-38
-3.3576658 30.006702 -0.067398183 1.0989942e-38
-3.22294 18.767933 0.10189611 1.0989942e-38
-3.2444689 18.827572 0.050065309 1.0989942e-38
-3.2220707 19.354538 0.035767678 1.0989942e-38
-3.3621683 24.31875 0.10780492 1.0989942e-38
-3.3804722 29.936926 0.11538312 1.0989942e-38
-3.3267221 30.733948 0.17715332 1.0989942e-38
-3.3310227 18.819286 0.26966745 1.0989942e-38
-3.2408066 19.228016 0.21961607 1.0989942e-38
-3.2500806 30.018456 0.39930686 1.0989942e-38
-3.2816279 30.784569 0.34888983 1.0989942e-38
-3.3888702 18.741661 0.47430867 1.0989942e-38
-3.2493567 19.362991 0.48459464 1.0989942e-38
-3.2735882 30.0047 0.46389452 1.0989942e-38
-3.0370378 18.851847 -0.96422064 1.0989942e-38
-3.0144739 23.176226 -0.29206508 1.0989942e-38
-3.1285596 29.976051 -0.35075974 1.0989942e-38
-3.1450136 30.572351 -0.25436985 1.0989942e-38
-3.1287026 18.788197 -0.17352931 1.0989942e-38
-3.1099944 18.895306 -0.0047006793 1.0989942e-38
-3.1154923 19.25346 -0.062601656 1.0989942e-38
-3.1203554 24.299858 -0.14851186 1.0989942e-38
-3.0266554 30.083012 -0.13889875 1.0989942e-38
-3.1273112 24.431736 0.037861105 1.0989942e-38
-3.0120656 30.016478 0.099670142 1.0989942e-38
-3.1612036 19.281353 0.32934165 1.0989942e-38
-3.1137362 24.327744 0.26616371 1.0989942e-38
-3.1123619 29.996805 0.29226232 1.0989942e-38
-3.1560397 30.04859 0.43629661 1.0989942e-38
-2.846612 20.319448 -0.26355806 1.0989942e-38
-2.8016324 20.752953 -0.23128928 1.0989942e-38
-2.9047942 22.431416 -0.25486028 1.0989942e-38
-2.8651814 22.64455 -0.2796582 1.0989942e-38
-2.8972731 22.817869 -0.28810078 1.0989942e-38
-2.9612577 23.085884 -0.27313113 1.0989942e-38
-2.8773851 23.411045 -0.20070907 1.0989942e-38
-2.9923654 29.979525 -0.20881703 1.0989942e-38
-2.8466723 30.041115 -0.26310593 1.0989942e-38
-2.857625 20.103296 -0.098883502 1.0989942e-38
-2.8211942 20.271717 -0.12181818 1.0989942e-38
-2.8364522 20.524582 -0.15892625 1.0989942e-38
-2.8029385 20.807175 -0.054908104 1.0989942e-38
-2.8699806 21.048536 -0.077060506 1.0989942e-38
-2.9358015 21.229633 -0.073169485 1.0989942e-38
-2.8947442 21.50959 -0.098499551 1.0989942e-38
-2.8933437 21.748854 -0.063965127 1.0989942e-38
-2.9002674 22.207651 -0.13572587 1.0989942e-38
-2.9160602 22.47147 -0.063106149 1.0989942e-38
-2.9001853 22.714653 -0.19281586 1.0989942e-38
-2.8921449 22.914877 -0.071136199 1.0989942e-38
-2.935111 23.053246 -0.1180604 1.0989942e-38
-2.9276681 23.225971 -0.044041924 1.0989942e-38
-2.8205776 23.466127 -0.19483855 1.0989942e-38
-2.8840311 29.92445 -0.075746551 1.0989942e-38
-2.896024 30.007666 -0.066204071 1.0989942e-38
-2.8212314 20.184416 0.073546685 1.0989942e-38
-2.8592684 20.516363 0.13685435 1.0989942e-38
-2.8654664 20.966427 0.19455576 1.0989942e-38
-2.9162385 21.169569 0.066193908 1.0989942e-38
-2.9187212 21.37468 0.06913802 1.0989942e-38
-2.8843393 22.531662 0.14869262 1.0989942e-38
-2.9184678 22.769846 0.093196683 1.0989942e-38
-2.920084 23.07872 0.12660542 1.0989942e-38
-2.8846071 23.28301 0.11491609 1.0989942e-38
-2.9636025 29.965471 0.117954 1.0989942e-38
-2.8627119 20.860743 0.35390282 1.0989942e-38
-2.8811715 21.401239 0.22294439 1.0989942e-38
-2.8975945 21.756847 0.25102678 1.0989942e-38
-2.9140716 22.147823 0.22166198 1.0989942e-38
-2.9662011 22.714661 0.30240908 1.0989942e-38
-2.9577179 23.503761 0.21681668 1.0989942e-38
-2.820441 23.839834 0.28744382 1.0989942e-38
-2.8984103 30.015007 0.2313811 1.0989942e-38
-2.9616866 21.669338 0.48748705 1.0989942e-38
-2.9573696 22.159798 0.49772742 1.0989942e-38
-2.8729553 23.674837 0.48050115 1.0989942e-38
-2.8443613 23.818192 0.43489486 1.0989942e-38
-2.9240716 30.032404 0.45868212 1.0989942e-38
-2.7894716 19.645731 -0.29829198 1.0989942e-38
-2.7349534 19.910891 -0.26838818 1.0989942e-38
-2.7144217 20.233341 -0.25225464 1.0989942e-38
-2.7842028 20.49173 -0.24053201 1.0989942e-38
-2.7499399 23.693619 -0.20362434 1.0989942e-38
-2.663605 30.031624 -0.29640615 1.0989942e-38
-2.7567472 19.748659 -0.074300438 1.0989942e-38
-2.7355785 19.932055 -0.10384255 1.0989942e-38
-2.7542052 20.170675 -0.16725293 1.0989942e-38
-2.774241 20.324745 -0.072010279 1.0989942e-38
-2.7650585 20.442505 -0.12528189 1.0989942e-38
-2.640202 22.598577 -0.051801354 1.0989942e-38
-2.7767911 22.606886 -0.11463113 1.0989942e-38
-2.6658432 24.330105 -0.15745386 1.0989942e-38
-2.6161952 29.999289 -0.032179274 1.0989942e-38
-2.6026769 30.046143 -0.041843593 1.0989942e-38
-2.7820272 19.785969 0.052359037 1.0989942e-38
-2.6876631 20.171387 0.12373781 1.0989942e-38
-2.7540021 20.3584 0.13573167 1.0989942e-38
-2.7041368 20.471161 0.094468467 1.0989942e-38
-2.6939659 22.519098 0.11647163 1.0989942e-38
-2.6969042 22.668653 0.098541848 1.0989942e-38
-2.7941375 22.986816 0.098938778 1.0989942e-38
-2.7267721 24.169502 0.15496758 1.0989942e-38
-2.7780452 24.442194 0.080598712 1.0989942e-38
-2.6100338 30.040041 0.17730716 1.0989942e-38
-2.7766123 19.775076 0.21099533 1.0989942e-38
-2.7712312 20.120882 0.21240045 1.0989942e-38
-2.6973579 22.903948 0.23688605 1.0989942e-38
-2.7580276 23.117702 0.23250461 1.0989942e-38
-2.7306015 29.935684 0.35788727 1.0989942e-38
-2.6569848 30.065472 0.30430198 1.0989942e-38
-2.6450179 20.171225 0.48938915 1.0989942e-38
-2.7691956 30.033649 0.45594624 1.0989942e-38
-2.588964 29.988007 -0.27569219 1.0989942e-38
-2.462877 30.097315 -0.22751355 1.0989942e-38
-2.5316253 30.929131 -0.31115162 1.0989942e-38
-2.4467201 19.384052 -0.18304437 1.0989942e-38
-2.5559311 19.822266 -0.066696063 1.0989942e-38
-2.4948213 30.064152 -0.0880775 1.0989942e-38
-2.4972539 30.946943 -0.13654566 1.0989942e-38
-2.4792123 19.427759 0.072684526 1.0989942e-38
-2.5670447 19.701452 0.090907186 1.0989942e-38
-2.5432327 29.970985 0.15825598 1.0989942e-38
-2.5491347 30.047508 0.083946243 1.0989942e-38
-2.4895515 30.931295 0.074076585 1.0989942e-38
-2.4901867 20.00589 0.22965172 1.0989942e-38
-2.5978484 20.239332 0.22302978 1.0989942e-38
-2.5209436 30.091213 0.27883199 1.0989942e-38
-2.5120575 30.958286 0.26718867 1.0989942e-38
-2.4555831 31.062071 0.21413094 1.0989942e-38
-2.4848089 31.058805 0.49429739 1.0989942e-38
-2.2821198 20.321125 -0.26503325 1.0989942e-38
-2.3353477 24.329102 -0.24306202 1.0989942e-38
-2.3657169 30.041332 -0.28779775 1.0989942e-38
-2.2319984 31.141958 -0.29902604 1.0989942e-38
-2.3646965 19.293568 -0.18376267 1.0989942e-38
-2.3475716 29.963598 -0.064755931 1.0989942e-38
-2.2533059 30.087975 -0.16978602 1.0989942e-38
-2.2827134 31.165842 -0.1134833 1.0989942e-38
-2.3656669 19.456289 0.10080299 1.0989942e-38
-2.3724778 30.071039 0.11129505 1.0989942e-38
-2.3535535 30.998182 0.13756728 1.0989942e-38
-2.2967386 31.164307 0.11823504 1.0989942e-38
-2.3827596 19.600872 0.34059668 1.0989942e-38
-2.3234024 30.055134 0.29944956 1.0989942e-38
-2.3193326 31.177347 0.24312553 1.0989942e-38
-2.3520069 31.260813 0.20318803 1.0989942e-38
-2.2225671 31.103159 0.45411891 1.0989942e-38
-2.0925608 30.073982 -0.29204142 1.0989942e-38
-2.1853535 31.230192 -0.21569833 1.0989942e-38
-2.1819608 19.330315 -0.18601561 1.0989942e-38
-2.0395026 30.101391 -0.045506623 1.0989942e-38
-2.0274463 19.398041 0.0094220787 1.0989942e-38
-2.0986106 19.434685 0.085248858 1.0989942e-38
-2.0967448 29.974752 0.087252937 1.0989942e-38
-2.1478162 30.063496 0.093943521 1.0989942e-38
-2.1108489 24.303392 0.25081134 1.0989942e-38
-2.0173795 30.135656 0.31561685 1.0989942e-38
-2.1218312 30.098412 0.49591199 1.0989942e-38
-2.1481209 31.119678 0.48316073 1.0989942e-38
-1.9737191 24.358028 -0.22464196 1.0989942e-38
-1.8967292 30.07962 -0.28917611 1.0989942e-38
-1.8350925 19.197502 -0.099331483 1.0989942e-38
-1.8013961 19.335886 -0.14386195 1.0989942e-38
-1.9390659 24.306122 -0.032250661 1.0989942e-38
-1.9341896 29.987825 -0.056380745 1.0989942e-38
-1.8097491 30.118036 -0.0001963228 1.0989942e-38
-1.812744 19.434814 0.081280366 1.0989942e-38
-1.9717846 24.361502 0.16120036 1.0989942e-38
-1.9166039 30.102325 0.11666946 1.0989942e-38
-1.846513 30.08173 0.35214865 1.0989942e-38
-1.885318 30.091858 0.49078804 1.0989942e-38
-1.7087257 19.847019 -0.20150378 1.0989942e-38
-1.7165356 30.086159 -0.28650394 1.0989942e-38
-1.7049339 29.952833 -0.052184474 1.0989942e-38
-1.7576407 30.083336 -0.18804924 1.0989942e-38
-1.615597 29.995504 0.041102756 1.0989942e-38
-1.674141 30.098396 0.084877729 1.0989942e-38
-1.6577578 19.614153 0.3666684 1.0989942e-38
-1.6884263 30.088591 0.30941123 1.0989942e-38
-1.7104874 19.835499 0.45950067 1.0989942e-38
-1.6672821 20.056244 0.43764618 1.0989942e-38
-1.6257212 29.992298 0.40692988 1.0989942e-38
-1.7535567 30.089104 0.4957642 1.0989942e-38
-1.4576435 30.108143 -0.29728997 1.0989942e-38
-1.57688 19.471966 -0.19339427 1.0989942e-38
-1.5329787 30.085945 -0.09217944 1.0989942e-38
-1.5740285 19.320766 0.021902435 1.0989942e-38
-1.462744 19.431053 0.049678124 1.0989942e-38
-1.4777951 30.129772 0.18956293 1.0989942e-38
-1.4155753 31.057354 0.089698799 1.0989942e-38
-1.4507989 19.785034 0.25757822 1.0989942e-38
-1.406178 31.040295 0.31232005 1.0989942e-38
-1.4230406 20.182064 0.45047605 1.0989942e-38
-1.2877997 30.073345 -0.2638455 1.0989942e-38
-1.2455819 30.857803 -0.32858607 1.0989942e-38
-1.3532801 19.358664 -0.1958757 1.0989942e-38
-1.3525878 30.093637 -0.044698223 1.0989942e-38
-1.2415295 30.208683 -0.0098192021 1.0989942e-38
-1.2540983 30.876583 -0.11173074 1.0989942e-38
-1.2944839 31.08762 -0.072166435 1.0989942e-38
-1.2028805 20.178791 0.038141489 1.0989942e-38
-1.3060846 30.106836 0.098141372 1.0989942e-38
-1.2491112 30.772129 0.10794612 1.0989942e-38
-1.2772851 31.132244 0.15102506 1.0989942e-38
-1.3811531 19.765123 0.38415313 1.0989942e-38
-1.2682986 30.132795 0.32447621 1.0989942e-38
-1.2914263 30.903534 0.22738227 1.0989942e-38
-1.2096877 31.13768 0.32569468 1.0989942e-38
-1.2807066 30.825981 0.46371472 1.0989942e-38
-1.0646611 30.111986 -0.29269272 1.0989942e-38
-1.1919565 30.939842 -0.24725705 1.0989942e-38
-1.0757247 31.060392 -0.28974304 1.0989942e-38
-1.1196954 30.080046 -0.043036141 1.0989942e-38
-1.1481607 30.894476 -0.13018104 1.0989942e-38
-1.1657753 31.114351 -0.12683129 1.0989942e-38
-1.1976705 20.10898 0.038455106 1.0989942e-38
-1.0082794 30.103657 0.12785463 1.0989942e-38
-1.1407975 30.110229 0.36488655 1.0989942e-38
-1.0047567 30.121559 0.46535936 1.0989942e-38
-0.92646176 30.108418 -0.30006278 1.0989942e-38
-0.94039536 31.093452 -0.24702159 1.0989942e-38
-0.92036355 30.122301 -0.14867461 1.0989942e-38
-0.85825586 30.094364 0.070030555 1.0989942e-38
-0.93640447 30.129873 0.28869501 1.0989942e-38
-0.68357325 30.14426 -0.28682852 1.0989942e-38
-0.69931203 30.09173 -0.11402631 1.0989942e-38
-0.7800827 30.200117 -0.012508616 1.0989942e-38
-0.72165543 30.122561 0.095048539 1.0989942e-38
-0.49494076 30.136955 -0.30161804 1.0989942e-38
-0.47305322 30.145439 -0.1662381 1.0989942e-38
-0.473939 30.177835 0.0522696 1.0989942e-38
-0.53117442 30.168032 0.2094954 1.0989942e-38
-0.47994015 30.210943 0.32459855 1.0989942e-38
-0.31974947 30.117626 -0.079966977 1.0989942e-38
-0.3401432 30.210876 -0.014915645 1.0989942e-38
-0.21528673 31.194742 -0.10495401 1.0989942e-38
-0.21397734 31.377726 -0.14494744 1.0989942e-38
-0.28136501 30.14632 0.10869555 1.0989942e-38
-0.25094891 31.161079 0.075611345 1.0989942e-38
-0.38317347 30.138861 0.28243098 1.0989942e-38
-0.24880004 31.233669 0.32014513 1.0989942e-38
-0.15021372 30.173496 -0.26629832 1.0989942e-38
-0.14405209 31.320181 -0.22756635 1.0989942e-38
-0.14706171 31.400776 -0.31595263 1.0989942e-38
-0.13774171 30.140167 -0.13970788 1.0989942e-38
-0.16668284 31.251976 -0.058217276 1.0989942e-38
-0.13354516 31.402124 -0.14296064 1.0989942e-38
-0.096382141 30.208027 0.069723591 1.0989942e-38
-0.13856131 31.313251 0.060806397 1.0989942e-38
-0.091685653 30.143103 0.3195188 1.0989942e-38
-0.18936746 31.335049 0.24234073 1.0989942e-38
-0.056496382 31.470055 0.24927396 1.0989942e-38
-0.10043669 30.129265 0.44832847 1.0989942e-38
-0.12345111 31.362881 0.48436487 1.0989942e-38
-0.13635468 31.470501 0.45920324 1.0989942e-38
0.1557056 30.136267 -0.26417735 1.0989942e-38
0.12417352 30.201967 -0.30248937 1.0989942e-38
0.10063831 31.302961 -0.28521392 1.0989942e-38
0.097039357 30.183258 -0.12374375 1.0989942e-38
0.10043812 30.245483 -0.01709915 1.0989942e-38
0.14427936 30.190275 0.089698412 1.0989942e-38
0.10304801 30.158897 0.32020396 1.0989942e-38
0.074423671 31.398766 0.45815641 1.0989942e-38
0.27479494 30.174603 -0.28936833 1.0989942e-38
0.25845361 30.146519 -0.012101695 1.0989942e-38
0.23602748 30.21286 -0.082506537 1.0989942e-38
0.20244038 30.176538 0.081237182 1.0989942e-38
0.29100311 30.151279 0.25769991 1.0989942e-38
0.28686219 30.304436 0.29372406 1.0989942e-38
0.48125082 30.129917 -0.13500673 1.0989942e-38
0.40699375 30.202822 -0.0043397546 1.0989942e-38
0.53602844 30.154034 0.29035687 1.0989942e-38
0.46816683 30.218687 0.25477374 1.0989942e-38
0.50565398 30.169468 0.46316496 1.0989942e-38
0.46237612 30.219519 0.45070076 1.0989942e-38
0.62772423 30.183378 -0.24303606 1.0989942e-38
0.65189075 30.21254 -0.20727596 1.0989942e-38
0.75881994 30.193256 -0.12483835 1.0989942e-38
0.72858 30.2551 -0.15166888 1.0989942e-38
0.72346258 30.173271 0.057410374 1.0989942e-38
0.62414718 30.202545 0.16616903 1.0989942e-38
0.70722342 30.182522 0.24005949 1.0989942e-38
0.75284147 30.234188 0.24617839 1.0989942e-38
0.71395922 30.179079 0.46157807 1.0989942e-38
0.88571799 30.182697 -0.22612101 1.0989942e-38
0.86717343 30.257097 -0.10664961 1.0989942e-38
0.94354081 30.178339 0.037105996 1.0989942e-38
0.93489838 30.216827 0.040748231 1.0989942e-38
0.84078693 30.178946 0.35267687 1.0989942e-38
0.95139039 30.237076 0.29417956 1.0989942e-38
0.88441825 30.177189 0.48765886 1.0989942e-38
0.98802328 30.206442 0.45150614 1.0989942e-38
1.0737721 30.167831 -0.24552885 1.0989942e-38
1.1319554 30.232948 -0.27624816 1.0989942e-38
1.1253906 30.191109 -0.10638356 1.0989942e-38
1.0383899 30.271954 -0.14687712 1.0989942e-38
1.1958961 30.172966 0.14364102 1.0989942e-38
1.0154579 30.232601 0.098558187 1.0989942e-38
1.1063735 30.153728 0.25704855 1.0989942e-38
1.1312268 30.278336 0.32320309 1.0989942e-38
1.3530185 30.238792 -0.30223435 1.0989942e-38
1.3836603 30.19976 -0.13181163 1.0989942e-38
1.3477702 30.224686 -0.10424513 1.0989942e-38
1.2463171 30.233543 0.079135127 1.0989942e-38
1.3274066 30.237347 0.28987825 1.0989942e-38
1.3315173 30.191713 0.47031355 1.0989942e-38
1.3200531 30.246628 0.47511086 1.0989942e-38
1.5626223 29.150404 -0.22095814 1.0989942e-38
1.5957417 27.872763 -0.060601279 1.0989942e-38
1.5955038 28.166618 -0.056189515 1.0989942e-38
1.5738268 28.619743 -0.049317174 1.0989942e-38
1.5373549 29.437176 -0.037297197 1.0989942e-38
1.5605785 29.75428 -0.18295771 1.0989942e-38
1.5393398 30.100952 -0.1002119 1.0989942e-38
1.5062529 30.247602 -0.073076375 1.0989942e-38
1.4900615 24.932058 0.19165602 1.0989942e-38
1.4847076 30.256641 0.095982023 1.0989942e-38
1.5671253 29.692627 0.34880608 1.0989942e-38
1.5130248 30.181143 0.27585882 1.0989942e-38
1.5244238 30.251591 0.34840953 1.0989942e-38
1.525056 30.237297 0.49297434 1.0989942e-38
1.7864884 27.300499 -0.27175403 1.0989942e-38
1.7641001 27.776867 -0.27551156 1.0989942e-38
1.7009149 27.827309 -0.23751739 1.0989942e-38
1.735103 28.506695 -0.27493212 1.0989942e-38
1.708048 28.931606 -0.2788707 1.0989942e-38
1.715785 29.195917 -0.27314481 1.0989942e-38
1.6698629 29.332127 -0.23736754 1.0989942e-38
1.6531031 29.688248 -0.27414018 1.0989942e-38
1.6293896 30.069569 -0.26351684 1.0989942e-38
1.7523571 28.069567 -0.177526 1.0989942e-38
1.6922345 29.619514 -0.15279874 1.0989942e-38
1.6547117 30.075794 -0.14273614 1.0989942e-38
1.620261 30.292973 -0.13832872 1.0989942e-38
1.7697145 27.768879 0.14497009 1.0989942e-38
1.7621111 28.095816 0.08485429 1.0989942e-38
1.7351177 28.504238 0.15493986 1.0989942e-38
1.696389 29.314848 0.17259675 1.0989942e-38
1.6849315 29.597437 0.016473975 1.0989942e-38
1.6615188 29.661461 0.16244283 1.0989942e-38
1.649856 30.126545 0.10147303 1.0989942e-38
1.7364726 26.931343 0.26994601 1.0989942e-38
1.7608085 27.398319 0.38098109 1.0989942e-38
1.6619368 27.483326 0.26130939 1.0989942e-38
1.7635168 28.104212 0.28785214 1.0989942e-38
1.7117035 28.874825 0.26660717 1.0989942e-38
1.6766878 29.59693 0.2793273 1.0989942e-38
1.6794891 29.777546 0.22196743 1.0989942e-38
1.6655293 30.192806 0.26893437 1.0989942e-38
1.6590306 30.240911 0.29375726 1.0989942e-38
1.7144365 29.004055 0.4729889 1.0989942e-38
1.7090712 29.897293 0.48981321 1.0989942e-38
1.987563 24.678123 -0.2717765 1.0989942e-38
1.9015733 25.274441 -0.25854844 1.0989942e-38
1.8789411 25.728748 -0.24552242 1.0989942e-38
1.8741703 26.123758 -0.27020806 1.0989942e-38
1.8427241 26.451431 -0.26928085 1.0989942e-38
1.812115 27.268013 -0.21017225 1.0989942e-38
1.8290396 27.653246 -0.20005062 1.0989942e-38
1.976789 24.663372 0.028889772 1.0989942e-38
1.9514017 25.700174 0.07778126 1.0989942e-38
1.9586742 26.06749 0.075817659 1.0989942e-38
1.9022238 26.513159 0.10075232 1.0989942e-38
1.8881028 26.902191 0.12369638 1.0989942e-38
1.8314582 27.305664 0.12327164 1.0989942e-38
1.8501899 27.816576 0.046639405 1.0989942e-38
1.966581 24.659119 0.33025587 1.0989942e-38
1.9031744 24.926765 0.36787176 1.0989942e-38
1.9857787 25.170937 0.20973761 1.0989942e-38
1.9554057 25.333681 0.2036427 1.0989942e-38
1.9618518 25.564596 0.37470528 1.0989942e-38
1.9209082 25.809669 0.36562109 1.0989942e-38
1.9975834 26.159372 0.31207585 1.0989942e-38
1.9041772 26.56852 0.33612442 1.0989942e-38
1.9065166 26.782274 0.30191204 1.0989942e-38
1.8702219 27.04882 0.30769289 1.0989942e-38
1.8582897 27.477711 0.35007432 1.0989942e-38
1.9070282 27.128284 0.40558895 1.0989942e-38
2.1669841 24.860355 -0.25999519 1.0989942e-38
2.1303928 24.67445 0.10712703 1.0989942e-38
2.1400108 24.860243 0.080379032 1.0989942e-38
2.0311067 25.284607 0.11264219 1.0989942e-38
2.0459523 26.428328 0.16101947 1.0989942e-38
2.1459179 24.821365 0.3294965 1.0989942e-38
2.0632172 25.67057 0.24507804 1.0989942e-38
2.0235038 26.03227 0.24003741 1.0989942e-38
2.1640313 24.838791 0.46263692 1.0989942e-38
2.1109347 25.353148 0.44825062 1.0989942e-38
2.068254 25.776138 0.43810022 1.0989942e-38
2.2125807 24.772863 0.33511597 1.0989942e-38
2.4894094 24.878075 -0.24942793 1.0989942e-38
2.5439122 24.858246 0.14236572 1.0989942e-38
2.7411242 24.890713 -0.24134757 1.0989942e-38
2.7905912 24.878365 0.053516638 1.0989942e-38
2.6736612 24.873554 0.49106044 1.0989942e-38
22.62406 60.725616 0.48169297 1.8134143e-38
22.801392 60.765854 0.47976112 1.8134143e-38
23.007893 60.740097 0.12573531 1.8134143e-38
23.039883 60.763657 0.47577572 1.8134143e-38
23.33354 60.827591 0.18106988 1.8134143e-38
23.404449 60.766552 0.091064118 1.8134143e-38
23.706814 60.787445 0.067092031 1.8134143e-38
23.753143 60.833374 0.20951906 1.8134143e-38
24.104309 60.864815 0.18866345 1.8134143e-38
24.501596 60.882149 0.18730183 1.8134143e-38
24.837704 60.897572 0.19342835 1.8134143e-38
25.234573 60.917519 0.19611697 1.8134143e-38
25.717873 60.954464 -0.61494869 1.8134143e-38
25.70277 60.952637 0.1685503 1.8134143e-38
26.091919 60.956024 -0.6094662 1.8134143e-38
26.103559 60.94223 0.2183097 1.8134143e-38
26.264469 60.954487 -0.60834867 1.8134143e-38
26.3692 60.683968 -0.59282744 1.8134143e-38
26.270351 60.74979 0.067609735 1.8134143e-38
26.302538 61.012909 0.18943524 1.8134143e-38
26.344481 60.925835 0.2982741 1.8134143e-38
26.312477 60.781929 0.44197324 1.8134143e-38
26.539875 60.207703 -0.75739753 1.8134143e-38
26.445112 60.831013 -0.60117173 1.8134143e-38
26.482363 60.684116 -0.56495368 1.8134143e-38
26.505539 60.693935 0.10318235 1.8134143e-38
26.50111 60.709114 0.26389706 1.8134143e-38
26.403633 60.960773 0.23638552 1.8134143e-38
26.756048 60.300842 -0.76043868 1.8134143e-38
26.660244 60.703922 -0.54088116 1.8134143e-38
26.634117 60.746723 0.19761524 1.8134143e-38
26.720928 60.807541 0.029417634 1.8134143e-38
26.784208 60.841255 0.44250256 1.8134143e-38
26.74844 61.068321 0.45048147 1.8134143e-38
26.950172 60.35059 -0.76099598 1.8134143e-38
26.907372 60.722969 -0.56832075 1.8134143e-38
26.859671 60.790169 0.18922508 1.8134143e-38
26.900915 60.762016 0.23787305 1.8134143e-38
27.091749 60.709648 -0.57109964 1.8134143e-38
27.142214 60.859898 -0.53788692 1.8134143e-38
27.100166 60.754662 0.23957539 1.8134143e-38
27.09108 60.997746 0.29266927 1.8134143e-38
27.298538 60.98003 -0.59238172 1.8134143e-38
27.244936 61.01561 0.24449351 1.8134143e-38
27.362558 61.213516 0.42426923 1.8134143e-38
27.584671 59.920959 -0.72335273 1.8134143e-38
27.416883 61.107536 0.31101492 1.8134143e-38
27.744392 60.617191 -0.76960409 1.8134143e-38
27.686535 61.044422 -0.61061507 1.8134143e-38
27.64855 59.661491 0.23035932 1.8134143e-38
27.698914 59.812843 0.37200013 1.8134143e-38
27.735538 61.071255 0.31989205 1.8134143e-38
27.928322 61.248844 0.43065584 1.8134143e-38
28.045542 61.107162 0.39788455 1.8134143e-38
28.399725 61.275383 0.43607628 1.8134143e-38
28.400492 61.265404 0.43607575 1.8134143e-38
28.683516 61.276432 0.43937665 1.8134143e-38
29.10714 61.304539 0.44439632 1.8134143e-38
29.343628 61.24136 0.29922867 1.8134143e-38
29.248381 61.313347 0.44608259 1.8134143e-38
29.421144 61.148945 0.24642122 1.8134143e-38
29.73061 61.121803 0.20522645 1.8134143e-38
29.733913 61.231018 0.29532927 1.8134143e-38
29.954773 61.164963 -0.66438603 1.8134143e-38
29.925188 61.198013 -0.03822723 1.8134143e-38
30.195528 61.142105 -0.66074365 1.8134143e-38
30.075836 61.140884 0.21054739 1.8134143e-38
30.188789 61.239189 0.29576826 1.8134143e-38
30.274492 61.184582 -0.51846868 1.8134143e-38
30.341536 61.164951 0.2146863 1.8134143e-38
30.251589 61.292465 0.20969325 1.8134143e-38
30.596237 61.021023 -0.75022018 1.8134143e-38
30.596178 61.209869 -0.51879162 1.8134143e-38
30.591496 61.301796 0.11611316 1.8134143e-38
30.42135 61.17049 0.21594769 1.8134143e-38
30.763409 61.221581 -0.51894921 1.8134143e-38
30.89933 61.063072 -0.71233886 1.8134143e-38
30.935043 61.341698 0.19917245 1.8134143e-38
30.834976 61.275894 0.30013257 1.8134143e-38
31.10742 61.237278 -0.51905221 1.8134143e-38
31.312025 61.061375 -0.71436095 1.8134143e-38
31.278673 61.250824 -0.51936138 1.8134143e-38
31.28126 61.31366 0.10654217 1.8134143e-38
31.315308 61.440964 0.061335966 1.8134143e-38
31.267941 61.318253 0.25451332 1.8134143e-38
31.309862 61.442905 0.49964193 1.8134143e-38
31.558329 61.261116 -0.51950431 1.8134143e-38
31.411797 61.292168 0.015310526 1.8134143e-38
31.698753 61.354233 0.25502554 1.8134143e-38
31.832922 60.937775 -0.78562546 1.8134143e-38
31.862144 61.271179 -0.52548718 1.8134143e-38
31.844505 61.350376 0.10836929 1.8134143e-38
31.953747 61.352119 0.2409226 1.8134143e-38
32.100742 61.068443 -0.75409424 1.8134143e-38
32.125511 61.370274 0.275812 1.8134143e-38
32.310772 61.278709 -0.53305423 1.8134143e-38
32.436951 61.39983 -1.1620135 1.8134143e-38
32.428497 61.164825 -0.70022976 1.8134143e-38
32.423321 61.304527 -0.52088428 1.8134143e-38
32.431572 61.386967 0.11055943 1.8134143e-38
32.416634 61.53717 0.073656045 1.8134143e-38
32.43924 61.367611 0.31699765 1.8134143e-38
32.784737 60.701748 -0.77883238 1.8134143e-38
32.632145 61.279373 -0.56509858 1.8134143e-38
32.679367 61.380157 0.28120428 1.8134143e-38
32.603886 61.411644 0.25207111 1.8134143e-38
32.862579 61.442249 -1.1579041 1.8134143e-38
32.883331 61.321781 -0.52172458 1.8134143e-38
32.943054 61.391399 0.072515398 1.8134143e-38
32.89632 61.42379 0.11246485 1.8134143e-38
32.933159 61.399235 0.32391739 1.8134143e-38
32.834061 61.529579 0.49197584 1.8134143e-38
33.027817 61.431393 -1.1554005 1.8134143e-38
33.01865 60.207054 -0.63838899 1.8134143e-38
33.049149 60.644402 -0.77820194 1.8134143e-38
33.037003 61.269279 -0.60288239 1.8134143e-38
33.129089 61.290241 -0.57125282 1.8134143e-38
33.045052 61.472015 0.20656011 1.8134143e-38
33.373363 60.592175 -0.77900243 1.8134143e-38
33.288567 60.905796 -0.66868186 1.8134143e-38
33.351036 61.313915 -0.61056387 1.8134143e-38
33.349087 61.346901 -0.52309263 1.8134143e-38
33.364307 61.448605 0.11459881 1.8134143e-38
33.572109 61.453083 -1.1491432 1.8134143e-38
33.541885 60.394348 -0.76878822 1.8134143e-38
33.424778 60.714905 -0.78743279 1.8134143e-38
33.457321 61.295921 -0.67662817 1.8134143e-38
33.501984 61.626778 0.087420449 1.8134143e-38
33.420086 61.438271 0.28424585 1.8134143e-38
33.776134 60.197182 -0.67474169 1.8134143e-38
33.795559 60.239044 -0.62151372 1.8134143e-38
33.601048 61.193794 -0.67086661 1.8134143e-38
33.755974 61.309662 -0.64741504 1.8134143e-38
33.753204 61.434921 0.31717992 1.8134143e-38
33.854942 60.215153 -0.66416764 1.8134143e-38
33.860405 60.411541 -0.77458364 1.8134143e-38
33.881813 61.344196 -0.62204635 1.8134143e-38
33.809296 61.633636 0.091596961 1.8134143e-38
33.898232 61.385139 0.36542812 1.8134143e-38
34.140717 60.18766 -0.70860791 1.8134143e-38
34.011829 60.24577 -0.62554151 1.8134143e-38
34.002319 60.481358 -0.78108269 1.8134143e-38
34.070576 61.398945 -0.52614534 1.8134143e-38
34.173149 61.661709 0.096670158 1.8134143e-38
34.212555 61.484917 -1.1421021 1.8134143e-38
34.280205 55.354118 -0.60803318 1.8134143e-38
34.390583 59.057709 -0.70109898 1.8134143e-38
34.383194 59.386826 -0.72064823 1.8134143e-38
34.34898 59.667702 -0.73698109 1.8134143e-38
34.348412 59.939987 -0.75350267 1.8134143e-38
34.239197 60.182014 -0.69858736 1.8134143e-38
34.25713 60.259613 -0.7201618 1.8134143e-38
34.396049 54.959091 -0.55963111 1.8134143e-38
34.20042 61.336109 -0.59962279 1.8134143e-38
34.392017 59.429909 0.097855307 1.8134143e-38
34.358788 59.794281 0.097652689 1.8134143e-38
34.356934 60.142376 0.097918898 1.8134143e-38
34.324017 60.266327 0.09753719 1.8134143e-38
34.289196 60.558086 0.097286403 1.8134143e-38
34.34832 60.746788 0.11621267 1.8134143e-38
34.260544 61.026646 0.09730424 1.8134143e-38
34.213776 61.456261 0.28740194 1.8134143e-38
34.57584 55.914757 -0.63101816 1.8134143e-38
34.588837 60.182953 -0.65211606 1.8134143e-38
34.582233 61.003368 -0.64536458 1.8134143e-38
34.544582 61.315899 -0.64683723 1.8134143e-38
34.403763 54.982059 -0.56030661 1.8134143e-38
34.58569 58.929703 0.15988687 1.8134143e-38
34.519638 59.92292 0.14754656 1.8134143e-38
34.516735 60.330956 0.1249747 1.8134143e-38
34.455975 61.050797 0.12790838 1.8134143e-38
34.446789 61.48085 0.12027469 1.8134143e-38
34.575958 60.979218 0.33491933 1.8134143e-38
34.536301 61.359325 0.34486449 1.8134143e-38
34.527996 61.418823 0.35031182 1.8134143e-38
34.620422 55.758347 -0.6049307 1.8134143e-38
34.697289 56.177528 -0.61684448 1.8134143e-38
34.727829 56.918961 -0.66029811 1.8134143e-38
34.774902 57.319916 -0.6149075 1.8134143e-38
34.756294 57.74044 -0.62567025 1.8134143e-38
34.723846 58.132378 -0.66066033 1.8134143e-38
34.710033 58.576569 -0.65829802 1.8134143e-38
34.722912 58.622734 -0.65261751 1.8134143e-38
34.665218 58.866711 -0.68426692 1.8134143e-38
34.666328 59.338226 -0.64591295 1.8134143e-38
34.661217 59.683937 -0.6848262 1.8134143e-38
34.656334 59.959141 -0.65354407 1.8134143e-38
34.612446 60.503273 -0.66385543 1.8134143e-38
34.608097 60.809841 -0.61387461 1.8134143e-38
34.64238 55.367588 -0.57444298 1.8134143e-38
34.745308 55.589382 -0.58177489 1.8134143e-38
34.772968 56.592911 -0.59587586 1.8134143e-38
34.770874 56.921211 -0.54276204 1.8134143e-38
34.771236 57.545296 -0.5225935 1.8134143e-38
34.748993 58.483334 -0.49575064 1.8134143e-38
34.777466 59.109962 -0.54122746 1.8134143e-38
34.743198 59.450249 -0.45448947 1.8134143e-38
34.766102 59.633575 -0.56467462 1.8134143e-38
34.645241 60.289452 -0.59255135 1.8134143e-38
34.661316 60.879868 -0.50791311 1.8134143e-38
34.63525 61.298672 -0.52359778 1.8134143e-38
34.793423 55.477081 0.14617786 1.8134143e-38
34.735683 55.617004 0.19845089 1.8134143e-38
34.696175 55.864914 0.19448572 1.8134143e-38
34.608742 58.99086 0.13065648 1.8134143e-38
34.742702 55.612495 0.30069351 1.8134143e-38
34.793152 55.867554 0.30125716 1.8134143e-38
34.7537 56.107735 0.24677044 1.8134143e-38
34.739342 56.523933 0.24246447 1.8134143e-38
34.719551 56.90432 0.2475372 1.8134143e-38
34.700768 57.412872 0.25437889 1.8134143e-38
34.732113 57.757057 0.28940618 1.8134143e-38
34.702461 58.172325 0.28545094 1.8134143e-38
34.690163 58.557571 0.29248077 1.8134143e-38
34.656303 58.968346 0.29138964 1.8134143e-38
34.662582 59.369453 0.31622097 1.8134143e-38
34.643715 59.794159 0.31935769 1.8134143e-38
34.611454 59.876579 0.33401689 1.8134143e-38
34.614159 60.192009 0.32397813 1.8134143e-38
34.601791 60.556015 0.32696116 1.8134143e-38
34.616264 61.152588 0.34729668 1.8134143e-38
34.850899 60.394325 -0.61930859 1.8134143e-38
34.816536 61.276733 -0.60877728 1.8134143e-38
34.856071 55.383846 -0.41183344 1.8134143e-38
34.910168 55.47451 -0.53343999 1.8134143e-38
34.856258 55.76664 -0.53952247 1.8134143e-38
34.838982 56.146271 -0.5484367 1.8134143e-38
34.881355 56.527378 -0.47980893 1.8134143e-38
34.841827 56.920113 -0.53014386 1.8134143e-38
34.897064 57.321369 -0.47165865 1.8134143e-38
34.842152 57.742672 -0.479081 1.8134143e-38
34.881428 57.822693 -0.52619326 1.8134143e-38
34.912155 58.123806 -0.50328559 1.8134143e-38
34.885826 58.660259 -0.52626669 1.8134143e-38
34.839516 59.398151 -0.58353394 1.8134143e-38
34.934757 60.576256 -0.54849803 1.8134143e-38
34.859673 58.19239 0.069388784 1.8134143e-38
34.974327 55.284809 0.25590456 1.8134143e-38
34.892998 55.472801 0.2792238 1.8134143e-38
34.946648 55.725204 0.24587357 1.8134143e-38
34.930988 56.166393 0.25754359 1.8134143e-38
34.912098 56.614723 0.24416429 1.8134143e-38
34.895138 56.970566 0.22735208 1.8134143e-38
34.887169 57.351383 0.24639563 1.8134143e-38
34.872341 57.678837 0.21313383 1.8134143e-38
35.163593 55.566261 -0.92941934 1.8134143e-38
35.101311 55.405083 -0.40856829 1.8134143e-38
35.140732 55.682175 -0.41650322 1.8134143e-38
35.075066 55.197365 0.099219687 1.8134143e-38
35.093948 61.411999 0.31687844 1.8134143e-38
35.360023 55.435528 -0.54432619 1.8134143e-38
35.238518 55.273251 0.25823799 1.8134143e-38
35.35136 55.600922 0.48989004 1.8134143e-38
35.412148 55.551903 -0.92589647 1.8134143e-38
35.50436 55.478127 0.28614438 1.8134143e-38
35.767338 55.069271 -0.57808799 1.8134143e-38
35.62532 55.360554 -0.57998848 1.8134143e-38
35.799484 55.424133 -0.55659169 1.8134143e-38
35.712036 55.312294 0.12824349 1.8134143e-38
35.748062 55.311527 0.2811501 1.8134143e-38
35.716606 55.481331 0.32896793 1.8134143e-38
35.857864 55.565014 -0.92095214 1.8134143e-38
35.907703 54.558994 -0.57118386 1.8134143e-38
35.865505 54.75835 -0.57426751 1.8134143e-38
35.828041 54.937897 -0.57727128 1.8134143e-38
35.808842 55.486786 -0.43034422 1.8134143e-38
35.913654 55.576527 0.15488212 1.8134143e-38
35.953651 55.085278 0.23196037 1.8134143e-38
35.865368 55.277859 0.30515569 1.8134143e-38
35.956059 55.503117 0.27780205 1.8134143e-38
36.136345 55.337936 -0.52760112 1.8134143e-38
36.114128 55.010902 0.1067268 1.8134143e-38
36.120037 55.5998 0.15658212 1.8134143e-38
36.088867 55.532005 0.33401442 1.8134143e-38
36.206753 55.575298 -0.91711539 1.8134143e-38
36.209961 54.853004 -0.60208189 1.8134143e-38
36.239567 55.509666 -0.42589509 1.8134143e-38
36.391735 55.385254 0.16007455 1.8134143e-38
36.324577 55.379463 0.2627407 1.8134143e-38
36.320015 55.459057 0.29516757 1.8134143e-38
36.514462 55.455124 -0.45930815 1.8134143e-38
36.473831 55.331741 0.32914719 1.8134143e-38
36.407257 55.505692 0.25153118 1.8134143e-38
36.557808 55.607651 0.2159771 1.8134143e-38
36.740791 55.495621 -0.48641825 1.8134143e-38
36.606003 55.072121 0.17783235 1.8134143e-38
36.71907 55.653893 0.16174978 1.8134143e-38
