# .PCD v0.7 - Point Cloud Data file format
VERSION 0.7
FIELDS x y z
SIZE 4 4 4
TYPE F F F
COUNT 1 1 1
WIDTH 1555
HEIGHT 1
VIEWPOINT 0 0 0 1 0 0 0
POINTS 1555
DATA ascii
29.127771 -7.97543 1.2174642
29.155693 4.0798469 1.328186
29.138414 4.2919779 1.2981601
29.167168 4.4289699 1.3875799
29.121513 4.6885395 1.3055948
29.085617 4.8731751 1.2859993
29.066019 12.827784 1.3349839
29.181562 21.099304 1.3423872
29.093327 23.869078 1.2776411
29.015459 27.964043 1.2989551
29.022625 30.187874 1.2346296
29.063782 32.374008 1.2689173
29.043093 61.132545 1.3472245
29.067257 -8.0713406 1.4520788
29.089531 -7.9746532 1.4709042
29.128702 4.1267471 1.5281086
29.138836 4.2145567 1.5530227
29.114521 4.6371341 1.4544153
29.109146 4.8639736 1.4516013
29.036776 9.681468 1.4173298
29.10873 10.172915 1.4004211
29.092003 12.76759 1.4104364
29.003115 20.368916 1.4192489
29.109907 25.714104 1.4987772
29.160168 27.971565 1.4373364
29.119183 28.03178 1.5060015
29.133316 32.343025 1.4973824
29.037407 32.43544 1.479828
29.035828 61.138306 1.5296087
29.148193 4.1056561 1.7248343
29.136211 4.272687 1.766319
29.15905 4.5220251 1.6209475
29.138992 4.7723999 1.6624211
29.078938 4.8896451 1.6994563
29.04892 12.208148 1.721101
29.185631 12.810644 1.7369576
29.008867 20.390396 1.7726579
29.041302 20.413692 1.6220503
29.091381 28.01771 1.6902684
29.042078 58.314995 1.7898526
29.036915 58.533337 1.788882
29.021362 59.053188 1.7827371
29.063217 61.161079 1.7827061
29.005569 61.245461 1.7836571
29.145515 -8.1066017 1.8885993
29.152794 4.1228361 1.880218
29.095457 4.503211 1.8869673
29.109819 4.7222967 1.8776296
29.100327 4.8628888 1.883383
29.012167 9.7029037 1.8213869
29.159584 12.276257 1.8795696
29.05888 12.844091 1.8290452
29.011166 22.633154 1.9921217
29.065479 49.493542 1.9914484
29.061729 49.639961 1.9453505
29.12348 50.065117 1.9981802
29.063204 50.97142 1.9726105
29.096382 51.278725 1.964083
29.061691 51.728935 1.950103
29.080576 51.860672 1.9993703
29.01326 52.140579 1.9657853
29.016907 52.502499 1.9633328
29.011303 52.979923 1.9206774
29.049109 54.318562 1.9266899
29.130623 55.634533 1.902509
29.181314 56.962952 1.816783
29.158169 57.064003 1.840224
29.074554 57.368191 1.8417495
29.194366 61.197178 1.8319187
29.089275 -8.1388302 2.195209
29.043245 -5.3845348 2.1075153
29.146765 -5.0124569 2.1195393
29.102589 -4.96351 2.0946667
29.175682 4.1769028 2.1013243
29.144682 4.5471516 2.1172161
29.183796 4.7130461 2.0218613
29.119495 4.9611053 2.1121731
29.095451 5.1304369 2.1157591
29.02492 20.4119 2.1627271
29.015457 21.988228 2.1901731
29.105278 47.716904 2.0741439
29.080933 47.916924 2.0052497
29.069916 48.031944 2.1177354
29.082527 48.529629 2.0190248
29.108994 48.648529 2.1559229
29.143215 49.193542 2.0060139
29.100458 49.732082 2.001117
29.013153 52.513641 2.0001702
29.036018 -4.8254218 2.2926848
29.016403 -4.7773976 2.3434904
29.199627 3.8071518 2.3257775
29.159611 4.1294556 2.3014789
29.169193 4.2494469 2.3582354
29.170963 4.7118816 2.2367988
29.121355 4.860899 2.2758293
29.032789 9.4895878 2.3713744
29.015732 9.712328 2.2322533
29.007343 12.22456 2.2169118
29.094421 12.873951 2.3455615
29.020081 20.372234 2.205096
29.035877 20.514563 2.2836127
29.118862 48.504631 2.2733071
29.103151 48.6707 2.3165665
29.11541 48.873001 2.245739
29.092743 49.148918 2.3132463
29.093691 49.281734 2.2410843
29.049412 49.723789 2.3075683
29.028803 50.085579 2.3214629
29.01598 50.48386 2.2410297
29.011913 50.898384 2.2265534
29.044075 -4.7574277 2.5040681
29.154352 4.1782036 2.4458416
29.17067 4.2899971 2.4698992
29.10721 4.4475842 2.4263673
29.126234 4.7680082 2.4315262
29.181705 4.8514905 2.5859814
29.065712 5.0208635 2.4745493
29.056545 10.142105 2.5056956
29.087132 12.838321 2.5577683
29.009758 20.377321 2.4383597
29.198441 48.306259 2.5106969
29.164761 48.520676 2.5051863
29.125641 48.909344 2.4992838
29.137749 49.030102 2.5012684
29.100372 54.999969 2.5182328
29.09095 -5.0307579 2.6318004
29.199343 4.1398053 2.6756196
29.158287 4.3148155 2.7129688
29.151039 4.7114086 2.7061439
29.140854 4.8592005 2.6452811
29.011934 20.394968 2.7291896
29.13131 20.441031 2.6224751
29.171497 28.594669 2.769278
29.156521 28.60314 2.7704854
29.064344 30.09481 2.7884231
29.011322 39.639702 2.7715211
29.136404 42.41703 2.7784643
29.012032 46.589832 2.7846851
29.120583 46.910198 2.7549968
29.108223 49.726398 2.6603932
29.02059 54.59943 2.6655214
29.079395 58.117317 2.692595
29.002676 58.21286 2.7434425
29.069901 -3.7671506 2.9733014
29.094883 -3.3715978 2.9597864
29.168083 4.1821604 2.9384384
29.173382 4.5919137 2.9479527
29.155231 4.7741437 2.9545586
29.12072 13.271257 2.9816396
29.127306 15.033504 2.981343
29.131084 15.610407 2.9629416
29.17309 15.935606 2.9708099
29.195423 16.150188 2.9138985
29.020338 16.25919 2.9393206
29.132835 16.493603 2.9331412
29.050865 16.693596 2.9762669
29.012306 18.233727 2.9213998
29.01635 18.967003 2.9765773
29.010061 20.198528 2.965857
29.009031 20.225883 2.9399681
29.000961 20.612404 2.8689222
29.070721 21.969395 2.9130497
29.095562 28.570169 2.9955091
29.026823 28.821499 2.8815079
29.012112 38.074318 2.9482708
29.199783 39.663521 2.8949029
29.162693 52.38063 2.8562298
29.163843 58.333939 2.8007288
29.053497 4.8391619 3.1104989
29.020664 9.6968145 3.1982801
29.067631 11.3515 3.1920838
29.00017 13.003732 3.0143151
29.118006 13.605627 3.0042591
29.02235 14.470349 3.0779593
29.168148 15.279644 3.1731389
29.105835 15.681458 3.0540519
29.151043 16.916176 3.0339832
29.116453 17.074017 3.0672016
29.101181 17.371124 3.0065806
29.174381 17.406342 3.0233295
29.048197 17.768311 3.0961208
29.100674 18.685146 3.0735459
29.030005 18.905033 3.0486033
29.152458 19.338211 3.0315266
29.026091 19.710888 3.0969753
29.127159 20.223188 3.0065122
29.08535 20.559353 3.0836926
29.075668 23.080952 3.1376934
29.085699 31.527607 3.1151402
29.021009 38.516384 3.0010996
29.099545 41.048367 3.0121701
29.101364 -0.7665062 3.3608551
29.105976 4.6942139 3.3433437
29.04961 9.6727409 3.2699971
29.15871 10.999235 3.2315595
29.038288 11.821453 3.2727327
29.083099 13.875043 3.3051226
29.033514 14.178212 3.2465127
29.1373 15.851555 3.3714008
29.147055 16.267548 3.2734182
29.126579 17.87722 3.2805648
29.073965 18.081776 3.2667067
29.054728 18.266485 3.2864556
29.002684 18.595661 3.3381596
29.040752 18.977789 3.2842941
29.063507 19.683661 3.3054848
29.170214 20.237812 3.2377663
29.168879 20.794514 3.229876
29.040848 20.874317 3.2136621
29.023113 23.708027 3.2454362
29.009979 24.106037 3.3219604
29.02994 24.395481 3.3765025
29.144791 28.996279 3.2990394
29.045425 34.763264 3.3965385
29.105816 34.80912 3.2914608
29.008703 38.482677 3.3672571
29.111374 -3.6498423 3.5577383
29.089085 -1.0666386 3.551234
29.164948 4.1372709 3.507472
29.135118 4.2721739 3.4556389
29.135887 4.9008398 3.5151007
29.127705 12.873113 3.5015936
29.067017 13.377867 3.4032907
29.144341 15.382406 3.4888625
29.126852 17.970797 3.5394619
29.061455 20.299971 3.4628563
29.034969 24.822319 3.4580612
29.050295 28.503853 3.5213017
29.178619 34.7369 3.5005536
29.017788 34.956039 3.4956942
29.054348 1.8496021 3.6496658
29.194578 2.7047052 3.7478883
29.181961 2.9969616 3.7346878
29.172491 3.3053753 3.7121367
29.16547 3.7018535 3.711633
29.109819 5.0809736 3.7106824
29.106468 5.390871 3.753958
29.07888 5.7045226 3.6426284
29.064602 6.0205531 3.6651211
29.113817 17.842678 3.6727009
29.184359 20.804806 3.6509073
29.012482 -0.99359679 3.809449
29.150616 3.6228325 3.8680258
29.174751 3.8452594 3.87063
29.039186 4.0816646 3.8524952
29.102558 5.68923 3.9140153
29.18932 3.4679825 4.0994463
29.179228 3.7846158 4.0456805
29.178978 3.8827393 4.1204319
29.124483 5.37538 4.1069155
29.350716 55.743885 -1.0119643
29.388544 12.175291 -0.60311127
29.377735 -8.0454569 -0.43048075
29.364231 -6.1157818 -0.42270225
29.313799 -5.8066969 -0.41377872
29.346727 -5.7173195 -0.41156054
29.353596 -4.3146615 -0.43883669
29.296925 -4.1808333 -0.43552494
29.318951 -3.8783035 -0.43249029
29.366526 -3.2657433 -0.42668182
29.367405 47.489426 -0.40251446
29.372137 47.688782 -0.47527853
29.214413 54.836845 -0.56476259
29.300882 56.148357 -0.45380592
29.294724 -6.9567499 -0.36921272
29.268381 -6.6180549 -0.38474375
29.226032 -6.008491 -0.36813974
29.325424 -5.8548403 -0.36746413
29.29674 -5.7857285 -0.36493582
29.361843 -5.3394127 -0.38356879
29.349005 -5.1766005 -0.39408368
29.318005 -4.7113552 -0.35069776
29.343105 -3.6480498 -0.31527716
29.28997 -2.9233093 -0.26856619
29.362194 -2.6473138 -0.33002615
29.30806 -2.5738826 -0.31222838
29.327065 -2.2299447 -0.32888287
29.325031 -1.5495397 -0.27468431
29.263084 -1.0163105 -0.27795011
29.381741 -0.66132212 -0.28400674
29.36272 -0.5349949 -0.30132565
29.321758 -0.12336037 -0.21964175
29.339327 0.02789259 -0.246482
29.372463 0.24887186 -0.29460865
29.229689 0.50606686 -0.22780564
29.352627 0.66104835 -0.24100764
29.288382 0.97576225 -0.22966529
29.327177 1.3477044 -0.22420427
29.381342 1.9059415 -0.22197214
29.25629 2.3838508 -0.25252259
29.296242 2.5033064 -0.22087553
29.286659 2.6256633 -0.23200563
29.357159 3.0882535 -0.20574684
29.318077 3.3973827 -0.21155982
29.261105 3.5419641 -0.21534768
29.237881 3.6866596 -0.29509464
29.204893 3.9891438 -0.21214189
29.378626 4.1214452 -0.24200846
29.339502 5.4860129 -0.33820358
29.375288 7.3421516 -0.20176969
29.38381 32.91444 -0.20980045
29.286148 34.729671 -0.20312661
29.323425 35.390827 -0.21875072
29.383549 36.595325 -0.23926559
29.344341 37.464489 -0.21189639
29.299414 37.920033 -0.2102752
29.318289 38.298145 -0.23231608
29.250336 38.602741 -0.22289652
29.303551 39.008488 -0.27575821
29.235651 39.986042 -0.22216532
29.249355 40.113159 -0.24438804
29.316883 41.467377 -0.2682988
29.324175 41.850254 -0.27846724
29.378487 42.297592 -0.33596295
29.2006 45.299747 -0.32125509
29.326092 45.711685 -0.35157931
29.281815 46.766914 -0.3447367
29.255623 47.369926 -0.39731526
29.347683 48.144093 -0.36508635
29.323597 55.63726 -0.33424342
29.334908 56.075684 -0.32598919
29.278954 -7.8784676 -0.054808334
29.378078 -3.0440054 -0.087451652
29.320633 3.0809612 -0.19111434
29.369701 3.3169107 -0.18294299
29.369453 3.513854 -0.16736469
29.369778 4.1026649 -0.15837756
29.27602 4.9233379 -0.14777981
29.213127 9.7013369 -0.087564871
29.330717 10.838997 -0.12957972
29.346563 12.173727 -0.065088615
29.348618 12.897255 -0.11210978
29.264359 13.510897 -0.06457606
29.271399 13.72234 -0.19466928
29.281786 15.936655 -0.098562703
29.328178 16.896175 -0.1079976
29.324055 17.302343 -0.07863605
29.257816 17.44384 -0.062346756
29.300159 18.16329 -0.16628954
29.293427 18.295801 -0.14212632
29.33205 18.47517 -0.12251738
29.3116 18.657661 -0.14678606
29.257174 18.838736 -0.11801688
29.289587 19.054932 -0.13653143
29.36528 19.534058 -0.14882366
29.331591 19.626715 -0.12660596
29.252186 20.131756 -0.0916816
29.32872 20.567947 -0.10528055
29.341158 20.607849 -0.13625266
29.351322 20.817484 -0.065287322
29.283028 21.074392 -0.053158522
29.264549 21.3155 -0.046017006
29.378302 21.891394 -0.074701667
29.336922 22.160259 -0.087201387
29.249659 22.36796 -0.031577349
29.334932 22.605209 -0.037435353
29.348171 22.953178 -0.053930007
29.366329 23.868622 -0.080622032
29.351011 24.12249 -0.14367557
29.291601 24.437088 -0.15354311
29.222483 24.948893 -0.018894106
29.266054 25.053087 -0.10226053
29.247595 25.589058 -0.019355953
29.258732 26.092491 -0.058392812
29.372074 26.681736 -0.024987245
29.339268 26.873659 -0.084713727
29.38604 27.331999 -0.0015948415
29.336182 27.470924 -0.095929801
29.278749 27.630234 -0.074559182
29.34726 28.188225 -0.051910907
29.287176 28.216385 -0.063662514
29.287308 29.069677 -0.061277688
29.349487 29.387554 -0.064553268
29.342865 30.112423 -0.073833287
29.343124 30.512882 -0.056758314
29.36351 30.95155 -0.09055087
29.276903 32.451855 -0.15575457
29.396261 32.933258 -0.17304641
29.342367 33.154987 -0.15421584
29.205812 34.769314 -0.13767031
29.282749 34.97403 -0.15425429
29.323528 36.173332 -0.16117543
29.297989 37.976105 -0.18548086
29.295631 55.54895 -0.074464656
29.357452 55.738678 -0.10444603
29.342632 -8.0389347 0.11770163
29.323002 -7.9004822 0.095667228
29.313797 -3.1151614 0.087094828
29.305346 4.1042871 0.10057304
29.269547 4.2244434 0.19728874
29.282585 4.8826008 0.15342048
29.328545 9.6890469 0.12919092
29.268311 10.247726 0.14976704
29.384399 12.175243 0.10842795
29.332857 12.214664 0.090657681
29.339483 12.583117 0.12157785
29.35767 12.655268 0.01443924
29.334869 12.940081 0.076014586
29.343735 13.021139 0.082440466
29.342625 17.330231 0.11710408
29.355902 17.404577 0.16663599
29.200336 17.651564 0.12568301
29.334724 20.756763 0.13724566
29.340361 20.965755 0.12499094
29.267426 21.206949 0.15743279
29.220333 24.008263 0.12597486
29.359039 27.871714 0.081327856
29.299896 28.124235 0.10541384
29.26296 55.527058 0.12079981
29.37635 56.056816 0.036121506
29.211279 -8.0500908 0.30383688
29.347488 -7.9157748 0.29765597
29.376884 -3.0196021 0.29232013
29.250843 4.1138678 0.23140877
29.398033 8.3663406 0.28835741
29.375731 9.7498369 0.23995385
29.392963 10.28756 0.20541772
29.34342 12.13804 0.25609168
29.317686 12.265096 0.27474988
29.294403 12.62637 0.28874308
29.338715 12.879832 0.25983667
29.289169 13.011902 0.2643052
29.384544 17.52507 0.31193057
29.285126 17.660225 0.28037864
29.302387 21.147982 0.34923458
29.202147 21.211792 0.31186554
29.32189 23.853832 0.20846534
29.301369 24.247158 0.38548064
29.265678 25.846722 0.2844601
29.292236 28.019869 0.28242764
29.310184 55.704185 0.20967695
29.299459 56.219997 0.28308409
29.343628 61.24136 0.29922867
29.312733 -8.0847139 0.4246237
29.287052 -7.9499073 0.45726994
29.216675 4.0859604 0.49648422
29.353533 4.7841301 0.48833945
29.271301 9.6784792 0.53832817
29.3855 10.270265 0.51998162
29.362326 12.175003 0.49400854
29.363762 12.5294 0.4291451
29.285595 12.902751 0.49826226
29.289265 13.022854 0.55989927
29.227331 17.640818 0.58428764
29.232849 18.903351 0.5734517
29.3496 21.141993 0.50650471
29.249559 21.208286 0.54283005
29.339115 23.875473 0.5577507
29.282997 25.764519 0.40459651
29.319485 27.983791 0.5849328
29.399675 28.050089 0.50745195
29.220062 32.336525 0.4939141
29.248381 61.313347 0.44608259
29.309345 -7.8656158 0.74007905
29.316202 4.123045 0.71451402
29.34502 4.8861699 0.71363866
29.346935 10.270369 0.64319605
29.372406 12.174537 0.66929424
29.340488 12.247602 0.71467137
29.351501 12.526834 0.69204354
29.344414 12.60365 0.66213638
29.330437 12.903622 0.7259692
29.336336 13.010986 0.72208881
29.307341 21.148663 0.76494986
29.312151 25.705818 0.6720733
29.341311 27.972681 0.74307895
29.298204 28.043274 0.65464175
29.326939 61.115181 0.68957782
29.299137 -8.128458 0.94722176
29.37109 -7.8517408 0.80264574
29.359604 -3.0945463 0.85571396
29.292789 4.1096425 0.94752967
29.333925 9.6604404 0.87338442
29.365227 10.193569 0.94253343
29.347771 10.279032 0.97383535
29.322132 12.167718 0.93135339
29.364529 12.354973 0.89032602
29.369072 12.517772 0.96123546
29.338036 12.669588 0.94127393
29.335571 12.962831 0.92704988
29.235859 19.041153 0.90975112
29.211405 21.087574 0.94152164
29.370195 24.357784 0.92781842
29.29129 25.449335 0.92563188
29.333181 27.95541 0.88679588
29.357685 28.077526 0.96571165
29.273184 32.348549 0.99223298
29.248104 56.10223 0.81472099
29.311764 61.174561 0.89423025
29.287376 -8.0816135 1.1312573
29.328724 -7.8642244 1.1273675
29.339216 4.1474361 1.0497098
29.391876 4.7760115 1.0191518
29.370337 9.6886921 1.1513244
29.319668 12.159692 1.0819769
29.30294 12.247553 1.0637445
29.317329 12.456103 1.1008257
29.321358 12.697008 1.0918989
29.327202 12.858452 1.1197598
29.22838 17.728348 1.033747
29.318733 21.288189 1.0830939
29.362911 24.010408 1.1513476
29.320923 25.730225 1.1156304
29.318895 27.98629 1.0861864
29.282444 28.141294 1.0806019
29.326368 -7.847436 1.3495634
29.357971 -3.1047854 1.3141208
29.300625 4.0896368 1.3534062
29.384565 10.231634 1.3143741
29.310961 12.166897 1.3386555
29.337 12.24369 1.2877247
29.285042 12.704069 1.3105686
29.350357 12.894117 1.3284519
29.337461 13.023515 1.3195341
29.209467 24.058765 1.236096
29.356663 27.905592 1.2372658
29.28199 32.356625 1.2423277
29.325838 -8.0497398 1.4635233
29.323891 -7.86233 1.4415174
29.367416 -7.794467 1.4825863
29.373264 -3.1063879 1.4051424
29.24107 3.9918675 1.4411572
29.268681 4.0982742 1.4330434
29.312145 4.222455 1.5412076
29.332569 4.6787009 1.4754639
29.387989 9.6487436 1.4106399
29.325357 12.158799 1.4524262
29.335751 12.200157 1.5535604
29.288336 12.954416 1.5314183
29.270592 20.98307 1.4235239
29.25915 21.106575 1.5392675
29.329613 23.920727 1.4890544
29.328699 24.144297 1.507993
29.256748 25.715763 1.5745928
29.247416 27.960783 1.5230396
29.227821 28.004953 1.5835204
29.35486 61.142872 1.5572213
29.352798 61.243561 1.4395351
29.394505 -3.1377177 1.6592165
29.291988 3.8966789 1.7483382
29.298138 4.1034875 1.6693573
29.392389 4.8366942 1.7179961
29.392033 10.199647 1.6675017
29.298639 12.346142 1.7651378
29.281591 12.571505 1.7642307
29.278442 12.886535 1.6617064
29.301937 13.008791 1.7088951
29.338467 23.920319 1.7082225
29.299562 58.532143 1.7403891
29.265018 -8.119894 1.9588375
29.343168 -3.0579631 1.840313
29.271046 3.9672971 1.96575
29.23826 4.0910826 1.9077851
29.218761 4.2074533 1.8164753
29.240837 4.5798721 1.8251184
29.395575 9.714179 1.8646135
29.384682 10.082616 1.890963
29.26701 12.162931 1.8054428
29.280312 12.218477 1.9177849
29.332829 12.774696 1.8017921
29.26857 12.845274 1.8680174
29.289009 50.697533 1.9471948
29.390163 51.012848 1.9493399
29.393349 51.748192 1.9386452
29.223091 52.047138 1.9890971
29.25209 52.269608 1.9319959
29.249359 52.611862 1.9418312
29.308403 52.988644 1.94191
29.265255 54.124252 1.9053959
29.347343 55.480751 1.9045889
29.28919 55.600384 1.9166068
29.384182 56.097408 1.9090855
29.325401 56.475563 1.8607209
29.303547 57.000164 1.8970139
29.299625 58.160728 1.8219712
29.229355 61.122063 1.9022672
29.366577 61.200794 1.9956759
29.338842 -8.1381035 2.1531641
29.299805 -6.0510406 2.0868435
29.250526 -5.4903364 2.1098554
29.295765 -5.0247798 2.1215286
29.288088 -4.8600206 2.1270084
29.290066 -3.0609293 2.1422384
29.289597 4.1444197 2.0716243
29.237545 4.3484507 2.1112518
29.388409 4.8566017 2.1447141
29.292128 9.7059603 2.0864327
29.335176 9.8841915 2.1947823
29.374105 10.133307 2.0852599
29.37948 12.27065 2.1314301
29.342167 12.71624 2.1039903
29.334311 12.902098 2.12099
29.284512 46.56197 2.0980489
29.381359 46.973602 2.1368589
29.397194 47.326698 2.1258659
29.361534 47.760799 2.1371768
29.211903 47.986507 2.0325522
29.307125 48.13483 2.1933546
29.235628 48.225639 2.0326791
29.313034 48.517494 2.0523801
29.231363 48.744057 2.0047095
29.245895 48.890167 2.0894578
29.265478 49.139099 2.0070248
29.248377 49.296532 2.0050364
29.213028 49.512184 2.0012379
29.315334 49.718094 2.1868854
29.316715 50.251934 2.012733
29.201132 50.460388 2.0017376
29.245724 50.972542 2.0472102
29.30348 54.042572 2.0150914
29.372353 -8.1598387 2.2004056
29.374876 -6.4799199 2.2104182
29.317322 -4.790885 2.2325716
29.325918 4.0794168 2.3158178
29.339888 12.19774 2.2493036
29.396996 12.218575 2.2628279
29.21138 12.561203 2.3635666
29.326496 12.627209 2.3677802
29.275463 12.852402 2.3563921
29.340942 47.298687 2.3792732
29.283289 48.040627 2.3553579
29.294506 61.33889 2.29633
29.323689 -8.1310539 2.4542184
29.247704 -4.7828455 2.487473
29.266235 4.1432962 2.4735954
29.284418 4.2311363 2.4788728
29.399864 10.181981 2.466774
29.257309 12.208908 2.5042434
29.254272 12.549001 2.4237275
29.3002 12.605705 2.5346727
29.366192 12.951828 2.4386146
29.331583 46.675812 2.4652965
29.336746 46.895943 2.4549809
29.308662 47.24894 2.4319284
29.28336 47.635239 2.4110057
29.227539 49.754669 2.4409387
29.370043 49.804432 2.4390416
29.276361 55.753586 2.5992539
29.343777 -4.8373938 2.6075437
29.261679 -3.1132517 2.6778617
29.330475 3.9745638 2.7139673
29.360153 4.0468359 2.6312919
29.280346 4.835072 2.6899114
29.373354 9.7106514 2.7636738
29.357286 10.129774 2.660697
29.280613 12.237118 2.6853557
29.333883 12.706273 2.6749644
29.303425 12.848524 2.6809263
29.32177 30.109835 2.7863955
29.317766 39.667419 2.7191133
29.208359 46.990757 2.7820537
29.299883 55.295326 2.6872768
29.285482 55.747513 2.6002517
29.235348 -3.5389924 2.8975456
29.346529 -3.1153488 2.8969648
29.230957 3.9494011 2.9267325
29.324743 4.1550994 2.809124
29.341785 10.114737 2.9270265
29.313799 12.193852 2.878962
29.35326 12.212605 2.8987033
29.274992 12.781179 2.9707146
29.375185 12.893786 2.9249198
29.221464 15.144915 2.9944093
29.39945 15.209583 2.9897795
29.340519 15.684526 2.9622273
29.254959 16.090408 2.9614034
29.260342 16.246424 2.9664712
29.261478 16.921669 2.9895911
29.274429 17.550919 2.9988239
29.262228 18.095108 2.889632
29.25511 18.952488 2.9817312
29.322006 20.898979 2.9896021
29.228277 28.836168 2.8815632
29.34672 38.05698 2.8974276
29.379343 38.53994 2.9440157
29.367855 39.656097 2.860837
29.331997 -3.9514019 3.0385036
29.276253 -3.7560353 3.0000637
29.362316 4.8590775 3.1418667
29.345802 9.7303915 3.0033627
29.337938 11.039905 3.1754875
29.337423 12.292788 3.0693083
29.33452 12.73926 3.0097291
29.232584 12.868399 3.0879416
29.325027 13.437557 3.0794563
29.231745 13.698112 3.0686965
29.213387 14.12504 3.0603042
29.288015 14.587271 3.0302339
29.213434 14.645877 3.0354867
29.217979 14.89514 3.0871997
29.389969 15.372907 3.0951774
29.260746 15.508341 3.0304387
29.271151 15.730118 3.0012288
29.318199 16.670433 3.1065202
29.275799 17.186335 3.0355535
29.256577 17.276939 3.1035867
29.332813 17.785202 3.1331758
29.333645 18.197668 3.1116047
29.2068 19.523237 3.095896
29.250029 20.421494 3.1000924
29.329992 20.660967 3.0435581
29.306431 23.45966 3.1355252
29.390228 28.491236 3.0513816
29.396097 31.616638 3.1249857
29.333218 55.06916 3.0747418
29.233213 -3.4693489 3.2221417
29.255558 -2.0926228 3.3683114
29.379608 4.75211 3.2366161
29.277664 4.8776798 3.3940732
29.297573 10.896526 3.2340677
29.266752 11.646567 3.271904
29.376842 12.785858 3.2869575
29.309181 13.84358 3.2792187
29.333569 14.092373 3.3008997
29.276066 14.25827 3.3840728
29.329872 15.885386 3.289999
29.304756 16.195374 3.2328529
29.231558 16.640667 3.3740487
29.368605 18.051546 3.2569759
29.214722 20.097763 3.2076786
29.263533 20.899628 3.2305355
29.33408 28.485527 3.3598187
29.337357 38.515038 3.3016067
29.363613 55.17569 3.232147
29.39505 -3.3264918 3.5917673
29.391872 -2.1288826 3.5387666
29.382523 -1.4382628 3.5253391
29.383038 -1.1060796 3.5264268
29.354666 -0.79262066 3.516017
29.384954 1.7672874 3.5203099
29.368431 1.9329484 3.4479315
29.366037 2.2182758 3.5252342
29.286713 14.477421 3.4362221
29.25779 14.998781 3.4066505
29.313591 20.435492 3.4404039
29.21487 34.742126 3.501091
29.39856 34.950523 3.4222198
29.209579 -3.6140575 3.7037861
29.37031 0.39118171 3.7079759
29.389055 0.76310664 3.6808734
29.351828 1.184797 3.6786151
29.355932 1.6073029 3.684335
29.344509 2.9036903 3.6076698
29.312981 3.4315414 3.7019389
29.266481 15.149601 3.6031933
29.288412 15.202826 3.6137216
29.353964 1.0161765 3.8623199
29.375288 1.3532288 3.824471
29.291016 1.8657709 3.8828666
29.334665 2.2393494 3.8278103
29.315804 2.6280057 3.8483281
29.323071 4.7553163 3.8405175
29.363686 5.0741787 3.8118286
29.388594 5.5982761 3.8238306
29.391491 -0.96976459 4.0112705
29.582741 -3.8183999 -1.2696288
29.475769 55.746651 -1.0102986
29.592493 55.889099 -1.0134864
29.558926 -7.0878921 -0.43633884
29.563883 -6.53827 -0.4673827
29.429722 -5.4860673 -0.40762854
29.404678 -5.1053133 -0.40789601
29.595306 -4.6192055 -0.44968438
29.567083 -4.5508966 -0.44800395
29.500843 4.8791828 -0.44828734
29.402386 47.792755 -0.44236797
29.405861 54.777184 -0.56044215
29.440239 56.179451 -0.46766901
29.466343 56.525974 -0.4804526
29.41156 -5.0321321 -0.3769365
29.433874 -4.8029442 -0.35428655
29.518124 -3.8804703 -0.26553375
29.534414 -3.7735617 -0.22446549
29.524429 -3.4575434 -0.20268857
29.551956 -3.3081398 -0.25678664
29.49435 -3.0614381 -0.23327246
29.419786 -1.7056919 -0.28444308
29.417816 -1.4770482 -0.29736659
29.562737 -1.3326032 -0.31955868
29.442635 -1.0773549 -0.33509964
29.510693 -0.97594249 -0.28855959
29.490719 -0.70240164 -0.28197366
29.500774 -0.44749141 -0.26529676
29.483181 -0.31798571 -0.29980439
29.522636 -0.046919357 -0.24525115
29.45808 0.11164407 -0.26568866
29.588724 0.48363107 -0.24854994
29.464996 0.89134681 -0.24076274
29.558468 1.0109708 -0.25112811
29.423506 1.3809781 -0.23756059
29.516119 1.4803488 -0.2509279
29.469574 1.7189381 -0.24757165
29.487612 1.8839618 -0.25672534
29.487598 2.1127625 -0.25033131
29.543377 2.6583977 -0.23782331
29.491554 2.8863332 -0.29658026
29.552687 3.9519749 -0.24155611
29.563156 5.3880844 -0.39595723
29.4743 5.9218831 -0.25825158
29.417 6.2041736 -0.20592135
29.468346 6.9526176 -0.2455107
29.465334 12.849073 -0.21687904
29.585262 18.704803 -0.20064232
29.570227 37.165588 -0.21320097
29.451189 38.126251 -0.2642197
29.405907 41.783363 -0.27038994
29.494183 41.943539 -0.29328674
29.43424 42.144924 -0.27697667
29.542753 42.495926 -0.35503176
29.431662 43.19112 -0.28895772
29.576366 43.253387 -0.28769213
29.441883 44.528465 -0.31529939
29.472025 44.927845 -0.37038243
29.478449 47.32679 -0.36458489
29.454102 47.493382 -0.38131237
29.517263 55.722218 -0.28468707
29.457211 56.014252 -0.20397106
29.546528 -8.2332611 -0.16696166
29.545303 -8.102356 -0.11891022
29.45195 -7.832983 -0.15822366
29.521482 -4.0208664 -0.18197182
29.537655 -3.8535814 -0.065043852
29.536676 -3.7811046 -0.14842418
29.526516 -3.2356489 -0.14982656
29.504219 -3.073561 -0.098277226
29.591944 -2.9616275 -0.10165054
29.421898 0.38758445 -0.19528979
29.488825 0.76700723 -0.18643618
29.556412 2.7804694 -0.19757248
29.506004 3.124042 -0.19615056
29.528896 3.3375819 -0.16762862
29.499781 3.5945592 -0.19832279
29.474508 3.8926229 -0.17609836
29.462584 4.1106033 -0.087143406
29.458294 7.7810621 -0.19045427
29.42399 8.2576065 -0.15510094
29.449875 8.6724243 -0.15403733
29.477917 9.0168915 -0.16066131
29.57782 9.4505043 -0.13424236
29.479767 9.6728477 -0.037251178
29.477287 9.8591576 -0.047769375
29.498777 10.191784 -0.11538282
29.486774 10.279755 -0.070378497
29.454861 10.681561 -0.15395468
29.573217 12.34718 -0.088965595
29.471355 12.450134 -0.10691536
29.462231 12.72305 -0.074144363
29.444902 12.840332 -0.068507731
29.429035 13.510125 -0.16984454
29.444805 14.731247 -0.16483137
29.453053 14.907722 -0.18369836
29.433323 16.184086 -0.084069043
29.516251 16.605947 -0.10573177
29.595921 17.780533 -0.03978762
29.413204 19.702904 -0.11488962
29.52541 19.94717 -0.097406484
29.544615 20.040495 -0.11580545
29.427982 20.259909 -0.12611248
29.506741 20.871546 -0.12462515
29.43471 21.549774 -0.051028222
29.446224 23.180344 -0.11961821
29.5716 23.210068 -0.040037036
29.485529 23.407242 -0.13625631
29.42197 23.875284 -0.029402226
29.597862 24.537926 -0.028990388
29.46734 24.660213 -0.028991533
29.527576 24.926268 -0.10204157
29.454128 25.398026 -0.070050389
29.542915 25.582977 -0.021086454
29.529728 25.807901 -0.00047954917
29.463573 27.053452 -0.043553859
29.584192 27.631657 -0.07636866
29.485229 28.036106 -0.028790355
29.49073 28.662516 -0.099782363
29.485121 29.063061 -0.095551446
29.539688 29.271967 -0.041409753
29.454666 29.530928 -0.049343035
29.402622 29.897577 -0.074728899
29.571589 30.069458 -0.097147197
29.512577 30.371435 -0.086923018
29.431244 30.519625 -0.0629825
29.515236 30.759838 -0.042302251
29.437218 30.880169 -0.11044665
29.574503 31.17351 -0.048361301
29.466759 31.33507 -0.10695725
29.412685 31.902248 -0.15056506
29.422598 32.586838 -0.16425782
29.449108 32.639977 -0.14725235
29.437826 34.082588 -0.12628144
29.415413 34.873093 -0.14059898
29.434631 35.304771 -0.14820981
29.57272 35.893143 -0.14460641
29.49041 36.249577 -0.16506791
29.403154 55.664417 -0.19790538
29.432463 55.920338 -0.081063241
29.5277 56.019012 -0.10972253
29.406233 61.164124 -0.16662024
29.484341 -8.1026993 0.040835947
29.582445 -7.8395929 0.080214933
29.492626 -3.8303061 0.12532565
29.532982 -3.7382565 0.14197852
29.495337 -3.4117665 0.078285113
29.525227 -3.3203654 0.098173
29.505207 -3.1140628 0.11896019
29.506252 4.1332808 0.12849976
29.503914 4.5500774 0.10563028
29.44784 4.7882862 0.13546735
29.589909 4.9155321 0.15627563
29.445217 8.2773504 0.063657433
29.522133 9.6852245 0.073463909
29.591656 9.990284 0.17380121
29.486301 10.09801 0.12266094
29.494621 10.251806 0.13797945
29.555119 12.168591 0.096206829
29.478666 12.440926 0.16496083
29.417648 12.602588 0.0655974
29.413914 12.976912 0.056329504
29.447927 20.766203 0.13830668
29.408293 20.949471 0.18492536
29.597614 21.06789 0.13073823
29.429117 23.69833 0.1161727
29.509457 27.127373 0.0011262298
29.536253 27.482252 0.0070207417
29.418301 28.437178 0.0094809234
29.481178 55.881321 0.10245155
29.465282 -8.064518 0.20175728
29.477076 -7.8397675 0.3160744
29.481359 -7.7723269 0.31317627
29.565128 -3.8404322 0.27552128
29.580959 -3.7790837 0.2937482
29.484474 -3.4689558 0.30237469
29.579199 -3.3795121 0.34465867
29.474442 -3.0917354 0.28088814
29.552521 -2.9820156 0.27749693
29.514542 4.1218376 0.25347883
29.481724 4.9493761 0.23742802
29.538176 8.3844748 0.29069227
29.478258 9.598197 0.35962033
29.43639 9.6607494 0.29875419
29.430529 10.276241 0.3159622
29.401442 12.44458 0.21322463
29.553574 13.073784 0.23484841
29.585255 14.267504 0.28737378
29.434027 20.971727 0.3465403
29.415262 23.759491 0.29589048
29.591244 24.169289 0.38703877
29.467628 56.133499 0.21615331
29.421144 61.148945 0.24642122
29.500942 -8.0714874 0.51590645
29.448364 -7.8993511 0.54737735
29.575489 -3.8494189 0.54498714
29.571777 -3.6784234 0.51507926
29.541576 -3.5210226 0.52820563
29.557177 -3.3138413 0.52019501
29.549721 -3.0997951 0.4968251
29.526455 -2.9307687 0.43796948
29.440428 4.118557 0.51635551
29.563717 8.3252926 0.55482721
29.502905 9.5660648 0.59163219
29.483932 9.6913452 0.51036906
29.508224 9.928977 0.56006843
29.45924 10.100311 0.51625252
29.474976 10.248943 0.52283508
29.557556 13.094357 0.45326281
29.577646 14.260179 0.58177656
29.45598 17.555946 0.49708492
29.522175 21.031374 0.54272604
29.472612 23.742008 0.473153
29.50658 61.285942 0.51021838
29.48473 -8.1061287 0.74273372
29.540564 -3.8449764 0.6415354
29.556669 -3.6708221 0.72543931
29.57229 -3.5242219 0.74426073
29.533834 -3.3394299 0.66804147
29.525864 -3.0840003 0.6694175
29.553484 -2.9859607 0.79759753
29.456863 4.1350794 0.69463915
29.50206 9.5572109 0.76767945
29.444262 9.6846809 0.66489583
29.503426 9.9188204 0.74011898
29.502041 10.178759 0.77243972
29.489262 10.242435 0.73919266
29.477129 13.097921 0.67203116
29.405682 17.549482 0.65029573
29.508427 21.065857 0.75361937
29.491098 23.805895 0.64671874
29.579077 24.182535 0.66280365
29.420263 61.16312 0.64113086
29.549849 -8.0918226 0.81941831
29.492325 -7.9038925 0.93406636
29.550457 -3.8367152 0.95878285
29.541111 -3.7745159 0.91073358
29.546288 -3.466866 0.90018284
29.468849 -3.386713 0.90229076
29.540031 -3.1205347 0.90581375
29.47263 4.1335988 0.87628031
29.593857 4.200191 0.89201009
29.524349 4.8808007 0.88832229
29.492533 9.5925379 0.84820002
29.481977 9.6787357 0.85047084
29.489243 9.8086548 0.93498546
29.54048 10.085783 0.96219474
29.456669 10.22522 0.91583252
29.450306 12.115627 0.85583532
29.548363 13.081146 0.89242935
29.428263 17.491707 0.87096828
29.449858 20.88932 0.95070505
29.432453 21.066048 0.99664932
29.530197 23.817669 0.82040763
29.445435 24.276825 0.84111679
29.54563 61.198025 0.80341727
29.500679 61.26825 0.86024725
29.511686 -8.1075716 1.0995128
29.467503 -7.8403416 1.1158328
29.481834 -7.7652183 1.1680064
29.548443 -3.8244462 1.1703346
29.549793 -3.7621999 1.0911152
29.538639 -3.2774634 1.1426657
29.507589 -3.077446 1.0493236
29.527149 4.1591678 1.0963821
29.585514 4.8734617 1.1523486
29.446659 9.6370316 1.1024082
29.457104 9.8631439 1.0204107
29.438583 10.007941 1.1241961
29.446529 10.220337 1.1599566
29.454254 12.797359 1.1256535
29.493698 14.147143 1.183551
29.483219 17.521767 1.0917274
29.59409 21.027605 1.1315581
29.445896 21.347012 1.0677695
29.507374 23.732576 1.0305769
29.428892 25.599506 1.0742133
29.442951 27.867943 1.1257821
29.439663 -8.1023817 1.2465088
29.510349 -7.8965149 1.3363042
29.592239 -4.0348134 1.3441942
29.570675 -3.8199453 1.3440058
29.565434 -3.7655611 1.3835731
29.557613 -3.2951851 1.3072059
29.497356 -3.1300364 1.2854096
29.527212 4.1425095 1.3053889
29.404202 4.2506647 1.3672769
29.588287 4.9269185 1.3126283
29.469517 9.6874962 1.2754549
29.410225 9.9750233 1.3598499
29.432156 10.22839 1.2609427
29.527254 21.034243 1.3333447
29.467173 23.842506 1.3517001
29.435581 24.17474 1.2901858
29.599949 24.276596 1.2069893
29.401457 25.616093 1.2424316
29.434425 27.845808 1.2306651
29.54575 -8.052947 1.4773965
29.411854 -7.824317 1.4151604
29.48954 -3.8927331 1.4114894
29.499023 -3.2368889 1.4798721
29.543732 -3.1179538 1.4770489
29.576651 -2.9898119 1.5311066
29.441696 4.8590498 1.4338388
29.436966 9.6830873 1.4711387
29.429802 9.9155483 1.4755659
29.468058 10.162615 1.4847583
29.540184 10.329872 1.4013925
29.531513 13.175077 1.5455247
29.432583 21.040756 1.409095
29.425428 23.812988 1.5427356
29.484411 24.208969 1.4956527
29.502617 61.130238 1.4966841
29.565969 61.22081 1.4780965
29.535831 -8.1102533 1.7845814
29.465809 -7.8994403 1.6258781
29.576847 -3.8924003 1.6305423
29.572149 -3.7766166 1.7480838
29.568657 -3.4887247 1.6802604
29.514856 -3.1370571 1.6727939
29.412359 4.1496496 1.7758843
29.575766 4.5932198 1.661863
29.530937 9.6821222 1.663208
29.502493 10.137437 1.79495
29.470259 10.250922 1.6114323
29.431072 12.250418 1.7226481
29.528902 56.597717 1.7429605
29.494564 61.231003 1.7279367
29.488297 -8.0763664 1.8611982
29.529915 -3.8769245 1.8584194
29.586712 -3.7862225 1.8359251
29.589546 -3.5291963 1.9122148
29.46452 -3.1362371 1.8442693
29.522898 9.6790829 1.8553247
29.470556 9.9141808 1.8474832
29.499676 10.220704 1.815213
29.409616 12.976374 1.8503296
29.469467 49.717525 1.9441556
29.491615 51.290817 1.9429494
29.56374 53.56559 1.9090687
29.521526 53.773724 1.9248397
29.410774 53.998615 1.9453853
29.466011 55.17514 1.8754005
29.414593 56.978168 1.8465782
29.424835 57.520847 1.8912945
29.561363 57.99152 1.8573869
29.540997 61.144325 1.9002515
29.542389 61.231594 1.8352028
29.487858 -8.1294346 2.1098638
29.503456 -7.9444561 2.1090426
29.509787 -6.2676339 2.0670674
29.523523 -6.0663128 2.1763175
29.484142 -5.867774 2.0601215
29.404022 -5.4048371 2.1090128
29.558113 -5.2495108 2.1282711
29.458385 -4.9221163 2.1136441
29.572971 -4.7810693 2.1026199
29.481379 -4.003089 2.063875
29.529018 -3.9386563 2.0911191
29.553484 -3.6698751 2.1880312
29.5453 -3.3733454 2.1762524
29.56382 -3.0986047 2.0898967
29.572416 4.8269176 2.0724702
29.460003 9.7367115 2.1099658
29.434944 12.243029 2.1544957
29.547031 39.982746 2.1487396
29.505716 40.374462 2.1919322
29.504393 40.617825 2.1844885
29.498112 40.865349 2.1086884
29.529766 41.802391 2.1732638
29.559719 42.27961 2.155324
29.457876 47.48595 2.0374801
29.429392 47.937531 2.0051498
29.429905 48.00869 2.0289676
29.45487 52.131977 2.0025311
29.419699 53.97332 2.0016227
29.519766 61.192673 2.0025098
29.449814 -8.1429777 2.2212844
29.580093 -7.8792958 2.2504616
29.506891 -4.853219 2.29527
29.592449 -4.7253551 2.378058
29.569197 -3.862257 2.2656813
29.478907 -3.0926969 2.2641358
29.421978 3.9624968 2.2746725
29.535641 4.0652785 2.365206
29.545147 4.3286324 2.3723764
29.51235 4.7138853 2.3629632
29.510746 4.8960075 2.2665167
29.487877 9.7043629 2.3243504
29.434469 9.8204641 2.2102239
29.463045 12.498204 2.3051486
29.423645 12.979327 2.2820272
29.5681 39.958549 2.2691329
29.510798 40.32338 2.2011542
29.547758 41.490322 2.3427119
29.552444 41.921654 2.2140636
29.526676 42.247887 2.2314897
29.531071 42.556393 2.2489276
29.49881 -4.753406 2.5520499
29.527233 -3.8283467 2.5605736
29.556465 -3.7616358 2.4418521
29.517061 -3.3474646 2.55827
29.505798 -3.1482592 2.4837663
29.542908 -2.9471879 2.5195322
29.489119 4.7613463 2.4894037
29.410965 4.8220501 2.5875566
29.494625 9.6919737 2.5144942
29.416428 9.9620037 2.526696
29.506491 10.166965 2.4495366
29.471807 10.236361 2.403559
29.444668 12.770117 2.4804535
29.427498 28.456898 2.5611157
29.529917 40.380257 2.5747507
29.547077 40.720402 2.4792688
29.552086 41.066395 2.5383768
29.478428 41.291531 2.5931239
29.475637 42.172649 2.5678055
29.504391 42.581963 2.5601957
29.507332 -4.8350248 2.6864753
29.522264 -4.76721 2.6064961
29.569389 -4.0680709 2.6099951
29.547283 -3.8979683 2.6961889
29.512918 -3.1303997 2.7052774
29.453381 4.1795459 2.623004
29.467342 9.9005651 2.7074151
29.579086 39.676975 2.7316053
29.484766 40.912621 2.6393428
29.498201 41.935875 2.6233089
29.591383 42.578899 2.6523905
29.531792 43.074493 2.6080279
29.434948 55.417133 2.6015322
29.519375 -4.855104 2.9157631
29.538715 -4.4597592 2.8628049
29.507879 -3.9694493 2.9888361
29.561338 -3.725919 2.9887464
29.55788 -3.4617202 2.927495
29.54467 -3.2142658 2.862922
29.571024 -3.0712614 2.9669437
29.555962 -2.9883366 2.9835951
29.557514 4.881505 2.9720695
29.408661 9.6793232 2.939837
29.518734 28.516085 2.9880726
29.409588 28.846947 2.8821352
29.42458 47.036106 2.8388035
29.590006 61.246704 2.8710523
29.588444 -5.7103071 3.1281023
29.560856 -5.2162485 3.0327201
29.569111 -4.9137039 3.0386176
29.573627 -4.5678239 3.0345149
29.563469 -4.2069921 3.0367439
29.561382 -4.1771307 3.0823929
29.433998 -3.8140504 3.0089417
29.543724 -3.4425893 3.0287948
29.567745 -3.3544378 3.035826
29.523491 -3.1514678 3.1204979
29.456093 4.7706394 3.0947504
29.473228 9.6493073 3.0584741
29.547255 9.8793373 3.1548142
29.425053 12.412909 3.0020559
29.450653 12.734385 3.0684819
29.428677 12.958902 3.0255747
29.406866 15.317242 3.1566024
29.571045 17.783457 3.1193049
29.514652 20.268494 3.0540884
29.403206 20.879761 3.0103221
29.562138 31.498367 3.0719376
29.529633 31.634594 3.1245697
29.531368 34.740952 3.0930336
29.425539 34.933147 3.1124232
29.593222 -5.8717828 3.2506394
29.46627 9.6855583 3.34161
29.474653 10.061857 3.3833585
29.411114 10.265282 3.3355021
29.414783 10.583498 3.259795
29.500021 15.208714 3.2841995
29.406178 20.847279 3.2251766
29.423855 23.35685 3.3770781
29.420462 28.497585 3.3582783
29.534641 29.013523 3.2950692
29.48254 -3.4568186 3.4817572
29.548454 -3.0433311 3.483706
29.427071 -2.8938673 3.551209
29.520784 -2.7105162 3.5094774
29.528948 -2.5087528 3.469028
29.427355 -2.1417861 3.4785714
29.56461 -1.8161407 3.5646846
29.541601 -1.7583039 3.4925251
29.528812 -1.2923456 3.5213642
29.446743 -1.0675918 3.5627668
29.500389 -0.90709019 3.486923
29.42997 -0.64620733 3.4632092
29.468208 -0.39337194 3.4677565
29.449696 -0.12172716 3.5199401
29.430843 0.21663502 3.5113182
29.429543 0.54169667 3.4499254
29.447779 0.66587156 3.4981961
29.40204 1.0226741 3.5087094
29.407028 1.4421382 3.4571204
29.57065 3.0147305 3.4596496
29.584194 3.5818729 3.5505667
29.534552 3.7502155 3.4878302
29.586336 3.9683726 3.5541036
29.470909 4.16434 3.4838095
29.52607 9.6623688 3.4243965
29.526419 12.874471 3.4952345
29.51421 15.28467 3.4494638
29.430859 17.958427 3.40453
29.494595 -3.5849876 3.6886234
29.555237 -3.3657274 3.6681457
29.576233 -2.9268394 3.6795034
29.541414 -2.6460218 3.7177649
29.553989 -2.4998283 3.6714606
29.526323 -2.2038839 3.7118769
29.503561 -1.8569186 3.7124112
29.491356 -1.4445337 3.6854792
29.4401 -1.3828789 3.7134991
29.436874 -0.96021318 3.6939819
29.435497 -0.64546764 3.740283
29.40449 -0.48036444 3.7089493
29.448669 -0.22058611 3.6700718
29.420322 -0.060782015 3.6821506
29.456476 0.35156405 3.6299448
29.430136 6.0473137 3.7330549
29.404394 17.876926 3.6244462
29.468849 20.833931 3.6915987
29.519611 -2.4561634 3.9872038
29.497047 -2.0111899 3.9530575
29.428251 -0.99449503 3.8844275
29.452991 -0.65594304 3.8795922
29.409836 0.19776255 3.8608351
29.411972 0.23805094 3.9196868
29.412506 0.61249483 3.8175497
29.517159 -3.4373007 4.0610886
29.520897 -3.0194438 4.1066413
29.526867 -2.9055042 4.0211258
29.526213 -2.6138194 4.0612421
29.535263 -2.4396849 4.1129227
29.510426 -2.1289401 4.0899878
29.502804 -1.8100566 4.0724783
29.411455 -0.91425073 4.0506492
29.471088 -0.55168343 4.075882
29.449959 -0.3959136 4.011157
29.45282 -0.071415022 4.064826
29.450981 0.25126851 4.0824289
29.434856 0.73442423 4.0794554
29.422623 1.0333233 4.0789361
29.41638 1.2657986 4.0803943
29.405033 1.4608483 4.080935
29.659178 -3.4803066 -1.2690682
29.679304 55.478027 -0.60780287
29.751179 -6.7489858 -0.47126773
29.787212 -5.41363 -0.42337668
29.66608 -5.3666353 -0.41908753
29.667202 -3.0344739 -0.43289614
29.743637 0.15405679 -0.40421349
29.719358 4.920496 -0.4464772
29.771202 47.825623 -0.48079687
29.64917 48.077808 -0.41090024
29.763716 48.316956 -0.41623881
29.758486 55.773903 -0.5443821
29.602087 55.872978 -0.54648507
29.635801 56.225327 -0.49858683
29.738039 -8.0389032 -0.25550425
29.698315 -7.9971552 -0.3321954
29.753916 -5.1709261 -0.38035381
29.627733 -4.3308105 -0.24488644
29.623728 -3.8066125 -0.23799525
29.606386 -3.6734927 -0.23895244
29.607559 -3.1227078 -0.31323051
29.716368 -2.8948483 -0.29551592
29.74161 -2.6593151 -0.30665845
29.634531 -1.6782728 -0.28364426
29.646273 -1.2902629 -0.30438718
29.645069 -1.1726544 -0.2342017
29.742458 -0.73372328 -0.27519605
29.689362 -0.49666983 -0.26792562
29.736475 -0.29721457 -0.21985818
29.682775 -0.11047268 -0.26156327
29.670715 0.16144563 -0.23328841
29.675642 0.24231684 -0.2512762
29.612658 0.76984972 -0.23280524
29.688007 1.0167708 -0.2479443
29.660872 1.3394238 -0.29524729
29.663181 1.4811835 -0.39179271
29.664726 1.6675341 -0.29619128
29.735983 1.8653066 -0.26599684
29.746199 2.1816061 -0.26951635
29.608931 2.3420548 -0.23435768
29.609169 2.5279307 -0.26581082
29.605156 2.9812958 -0.22978976
29.612623 3.2246871 -0.20020507
29.71464 3.5561562 -0.2558735
29.653116 5.1075916 -0.2068218
29.715717 5.370924 -0.25891793
29.648659 5.4965372 -0.21617457
29.654253 10.15295 -0.33734989
29.66116 13.49471 -0.20656589
29.743023 32.676289 -0.2074143
29.718687 34.960014 -0.21361846
29.722095 36.537407 -0.26736423
29.712543 37.682304 -0.21724185
29.764246 37.837414 -0.20524831
29.712044 38.134567 -0.31283298
29.795944 38.945435 -0.24342978
29.690857 41.995029 -0.29247087
29.769754 42.284786 -0.27379382
29.60428 42.51915 -0.35577205
29.734196 42.685608 -0.35305694
29.618349 44.479374 -0.31290066
29.754593 45.298157 -0.36573187
29.774178 47.342182 -0.35152
29.738129 47.538963 -0.3437331
29.695332 47.698238 -0.39306656
29.769197 47.847511 -0.39339483
29.724846 -8.0804691 -0.12166898
29.726124 -7.8800111 -0.10382064
29.616814 -3.9043283 -0.056599095
29.777952 -3.6995516 -0.11053561
29.64761 -3.4477644 -0.11046921
29.70266 -3.3565586 -0.17874427
29.662178 -3.0399804 -0.013266116
29.676624 2.7269263 -0.18499368
29.711554 2.8513458 -0.17603979
29.732872 4.1278262 -0.066357099
29.755894 4.3235388 -0.13822083
29.747143 4.6785412 -0.11620799
29.711311 4.9517174 -0.093539387
29.70142 5.1464381 -0.17695335
29.707909 7.356463 -0.1895678
29.722265 7.4473557 -0.1905386
29.76071 8.5862694 -0.13700984
29.76215 9.4166393 -0.17446984
29.729933 9.7197533 -0.083865412
29.760971 12.173932 -0.080300748
29.653681 12.282164 -0.084435642
29.610975 13.360359 -0.18015558
29.761822 13.951172 -0.053347915
29.685814 14.248882 -0.0053765923
29.698832 14.652083 -0.16288023
29.692776 16.370358 -0.071265198
29.689026 16.448936 -0.039059103
29.749599 17.881857 -0.039213032
29.760136 18.156857 -0.12918855
29.777927 18.268808 -0.13780308
29.666613 18.574858 -0.12460531
29.684893 18.695448 -0.10909626
29.637182 19.092289 -0.11432347
29.644363 19.299013 -0.11597943
29.751766 19.748329 -0.10228094
29.651808 20.178308 -0.12136499
29.649906 20.595358 -0.077994883
29.610777 20.740437 -0.072405934
29.72504 20.877216 -0.10413585
29.755535 21.52202 -0.051505744
29.705711 21.963898 -0.12975098
29.799099 22.591518 -0.059761167
29.710989 23.35508 -0.079317182
29.661308 23.419786 -0.18600482
29.712168 24.42952 -0.034333467
29.617239 24.704046 -0.039958775
29.727982 24.859457 -0.073783003
29.769629 25.255783 -0.1098308
29.652658 25.468668 -0.013819784
29.756924 25.878426 -0.091268569
29.622635 26.745457 -0.067738332
29.797182 26.98262 -0.066867083
29.727741 27.016777 -0.068847679
29.733765 27.391411 -0.085559398
29.664518 27.87476 -0.059993431
29.640051 28.226427 -0.049880654
29.730518 28.856607 -0.042531088
29.681414 29.085781 -0.045702785
29.727585 29.742535 -0.099068768
29.68791 30.146389 -0.09244597
29.706493 30.217756 -0.087686978
29.725704 30.718895 -0.10414177
29.738102 31.325642 -0.078242555
29.714355 31.445877 -0.12677097
29.782619 31.74889 -0.14432508
29.713858 33.067154 -0.13303599
29.782713 34.1106 -0.11881721
29.699757 34.964802 -0.15949649
29.720449 35.368374 -0.1322327
29.696693 36.272774 -0.16457412
29.62583 38.048615 -0.18727258
29.651617 55.79385 -0.039354689
29.721745 61.18763 -0.16347788
29.689034 -8.1225052 0.11785122
29.640369 -7.8383894 0.11751904
29.60358 -3.9942865 0.14831974
29.620014 -3.723696 0.09189368
29.726484 -3.2515411 0.090506256
29.706289 -3.0379858 0.1363568
29.654762 -2.9693747 0.17497177
29.72695 4.1335216 0.055332463
29.733452 4.2798095 0.14990169
29.727261 4.5059271 0.13752696
29.716835 4.920063 0.1545265
29.765434 8.4240227 0.079537809
29.676531 13.085962 0.054600939
29.621469 25.731255 0.015032262
29.621569 28.075722 0.00018846989
29.640415 28.596886 0.0061984658
29.72278 -8.0506306 0.32198355
29.756767 -7.8204131 0.35713023
29.772442 -7.77705 0.36141676
29.618568 -3.8446231 0.32706675
29.640884 -3.7391355 0.30822349
29.641949 -3.4007196 0.33256507
29.623383 -3.0242059 0.30418274
29.635063 -2.9604368 0.2680456
29.689585 4.134582 0.29204142
29.701591 4.2323899 0.26230529
29.699095 4.6825604 0.20461048
29.700361 4.9366817 0.32205737
29.695297 8.454834 0.29403365
29.734209 9.7831526 0.31405514
29.764122 10.949244 0.21714279
29.785906 13.181063 0.23940717
29.63847 56.062412 0.21488604
29.73061 61.121803 0.20522645
29.733913 61.231018 0.29532927
29.714703 -8.0603008 0.44772387
29.694273 -7.8669086 0.45802945
29.680544 -3.8422046 0.53322184
29.640942 -3.7678423 0.4871996
29.674824 -3.5198636 0.44488373
29.649897 -3.2253528 0.45307279
29.726629 -3.065465 0.52476513
29.669456 -2.971796 0.44471806
29.684555 4.1307364 0.49104816
29.71896 4.3070736 0.55381012
29.732309 4.464016 0.53815162
29.702198 4.6504536 0.54306138
29.704586 4.9230099 0.52396035
29.772181 8.3372421 0.51081109
29.775501 9.8374081 0.56951153
29.796808 10.896192 0.50746566
29.740267 13.162353 0.50647539
29.730522 13.260635 0.45016518
29.656776 -8.0975208 0.72392511
29.755024 -7.854558 0.76012737
29.730726 -4.0704284 0.79146188
29.654358 -3.8550005 0.70815337
29.668205 -3.6593516 0.6632278
29.600035 -3.4393363 0.63046193
29.630436 -3.3482218 0.71234596
29.686319 -3.0872202 0.69049227
29.63171 -2.9236703 0.67706668
29.662071 4.1578112 0.69932163
29.717089 4.26194 0.67520928
29.718376 4.4456024 0.7433157
29.707916 4.6394787 0.69626004
29.716747 4.9070606 0.6807729
29.691158 8.2589207 0.73338199
29.79283 14.314987 0.72900164
29.717394 61.120426 0.6865952
29.735352 61.237122 0.64625198
29.720589 -8.0651608 0.84935486
29.729408 -7.8502579 0.83134329
29.670387 -3.8508863 0.85396183
29.623924 -3.7819948 0.96275473
29.65696 -3.4504974 0.89298654
29.652683 -3.0573158 0.86162484
29.667477 -2.9759374 0.99145067
29.668627 4.153985 0.8831374
29.737928 4.2305207 0.87674606
29.7181 4.5301847 0.8833313
29.704037 4.7059364 0.87164044
29.701029 4.8960199 0.90633667
29.787498 12.990071 0.96227413
29.645096 24.244719 0.93435931
29.716953 -8.0547838 1.0831838
29.723362 -7.8676724 1.1980145
29.619511 -3.8359461 1.1455631
29.661074 -3.7489409 1.0650904
29.65946 -3.3122544 1.0704527
29.710983 -3.1102805 1.0698316
29.667908 4.1469078 1.0489529
29.738213 4.2532234 1.0138162
29.735312 4.5317793 1.0387872
29.708412 4.7830992 1.0671198
29.681826 4.9017906 1.0941637
29.636469 9.823019 1.1814406
29.767477 10.791512 1.002037
29.613138 13.29369 1.0855583
29.625652 20.947624 1.0983572
29.610405 23.778027 1.1766696
29.741426 61.152699 1.0967193
29.696285 -8.0714836 1.2810719
29.751312 -7.9118156 1.2315202
29.788937 -7.7870741 1.2308738
29.655779 -3.8426557 1.3248417
29.65284 -3.7413626 1.3722093
29.701998 -3.244463 1.3345454
29.639669 -3.0944321 1.2799141
29.645794 -2.9653299 1.3515223
29.66293 4.0884509 1.3035839
29.679295 4.8947001 1.2779064
29.670086 9.8272982 1.3554955
