# .PCD v0.7 - Point Cloud Data file format
VERSION 0.7
FIELDS x y z
SIZE 4 4 4
TYPE F F F
COUNT 1 1 1
WIDTH 1585
HEIGHT 1
VIEWPOINT 0 0 0 1 0 0 0
POINTS 1585
DATA ascii
2.9677405 25.812962 1.9576682
2.9353695 26.090076 1.8909457
2.9598758 26.214525 1.9518108
2.9308221 26.536995 1.9082891
2.965282 26.691322 1.9435984
2.9788928 26.921753 1.8569012
2.9303479 27.050159 1.901664
2.9787855 27.352253 1.8520005
2.894402 27.461624 1.9023429
2.8678246 27.855425 1.9226427
2.8247337 28.255817 1.9437757
2.9870176 35.196648 1.8998369
2.9347072 35.368412 1.8999109
2.8704212 1.8974774 2.0239913
2.9819698 2.1070635 2.0321925
2.8213258 3.6334105 2.0617595
2.879951 4.9612336 2.0164371
2.9931655 5.549572 2.0376987
2.9311578 6.6630917 2.1579351
2.8032868 8.0095196 2.0371854
2.9136038 8.212965 2.189281
2.9852467 8.4091454 2.0124979
2.8707964 9.0164022 2.0280857
2.8342528 10.395651 2.1226745
2.9446607 10.707835 2.0632238
2.9683867 10.966252 2.1462584
2.9530246 11.052586 2.1085649
2.9479442 11.338972 2.1025321
2.9516683 11.508394 2.0877607
2.9570398 12.305141 2.0446057
2.970366 12.503791 2.119529
2.8543587 12.673248 2.0613298
2.9226761 18.784504 2.0734091
2.9266891 18.867474 2.0421987
2.8837988 19.122719 2.0715859
2.9179516 19.350163 2.0403428
2.911231 19.446793 2.088784
2.9683268 19.607273 2.1317987
2.9050186 24.166203 2.1052382
2.8982778 24.294426 2.1541791
2.8988571 24.555531 2.1015372
2.8664052 24.762394 2.1460407
2.8799007 24.895832 2.166528
2.8950119 25.135908 2.1598732
2.8710446 25.255653 2.1091132
2.8800206 25.460155 2.1536727
2.8873553 25.660948 2.129004
2.8888505 25.884804 2.1325192
2.8800514 26.069603 2.1301999
2.8425434 26.274361 2.1054709
2.878664 26.532211 2.1517389
2.8274851 26.677845 2.1019223
2.8837473 26.937248 2.1417203
2.9130828 27.178011 2.1550655
2.8389194 27.37072 2.1736302
2.8292208 27.426311 2.0601711
2.868979 27.779032 2.1536462
2.8720756 27.9216 2.1376781
2.8119481 28.011251 2.1612599
2.9201579 28.390213 2.1813874
2.866339 28.545944 2.1073334
2.9055891 28.750772 2.1655765
2.8934324 28.910469 2.178215
2.8214822 29.103743 2.1750989
2.8515651 29.464811 2.1811173
2.8566518 29.695181 2.1466937
2.8957837 29.874178 2.1696415
2.844965 30.07263 2.1575108
2.8371866 30.301882 2.1460924
2.8893142 30.815294 2.1700859
2.9140401 8.0361576 2.2334921
2.8680036 9.1235733 2.3606625
2.8940198 10.701 2.2767289
2.8911519 10.929646 2.2854757
2.9206347 11.13072 2.320775
2.9555054 11.333321 2.3530898
2.9494271 11.493786 2.2537508
2.8337543 12.46652 2.2403793
2.8483226 18.936241 2.3491993
2.8801584 19.090748 2.3575861
2.8545666 19.301178 2.3170094
2.8617339 19.4876 2.3217392
2.9482121 19.634598 2.321197
2.8550789 23.492767 2.3375022
2.9352751 24.164825 2.2136459
2.9172037 24.298927 2.2845311
2.9416296 24.50857 2.276444
2.9012661 24.747353 2.2278743
2.8869479 24.852554 2.2784834
2.9269693 25.147243 2.2515397
2.8871264 25.265896 2.2207024
2.893172 25.513226 2.2576075
2.8848679 25.658579 2.2468925
2.8939555 25.925905 2.3525832
2.8940465 26.089489 2.2369065
2.9003029 26.30748 2.2377009
2.904551 26.539021 2.3061869
2.8919225 26.716484 2.3473353
2.8685694 26.93018 2.2486005
2.8653193 27.060711 2.2645893
2.8846328 27.320938 2.2440081
2.8904605 27.434265 2.2585261
2.9102201 27.728241 2.2606416
2.889215 27.863857 2.265388
2.9076047 28.163296 2.274868
2.8866277 28.273493 2.3099179
2.8772473 28.492254 2.2926421
2.9066508 28.70709 2.3157449
2.9042687 28.908627 2.2796309
2.8884144 29.100864 2.2928898
2.9125245 29.31237 2.2903893
2.9098959 29.458797 2.3289022
2.8743296 29.695368 2.2595239
2.9121628 29.879894 2.3274517
2.914717 30.109596 2.2830276
2.9242582 30.223688 2.2745461
2.945055 30.898869 2.3265347
2.9560783 31.009228 2.2615752
2.9112785 35.388382 2.3460991
2.8949885 35.459053 2.3490157
2.9104326 35.704453 2.3598173
2.8889928 35.848862 2.3542325
2.9409513 36.062721 2.3900986
2.8687 36.302895 2.3605852
2.8326459 36.48204 2.2891877
2.8991289 10.470805 2.5504236
2.9408708 11.0113 2.4091804
2.9201179 18.944878 2.4564056
2.9052341 19.113462 2.5401087
2.903091 19.28194 2.5143166
2.8931088 19.417309 2.4680624
2.9868164 22.896763 2.4427373
2.8644161 23.497744 2.5052576
2.8674757 24.185947 2.4909067
2.8230615 24.27916 2.4684606
2.9112492 24.498232 2.4849954
2.863512 24.665321 2.4865947
2.8575473 24.975664 2.4454055
2.8320632 25.084585 2.5397909
2.8709221 25.28476 2.5182412
2.8426809 25.504074 2.528264
2.8550053 25.680157 2.5263705
2.8425279 25.861383 2.5013356
2.8498006 26.06599 2.4745905
2.8045948 26.362701 2.5668712
2.8571553 26.515427 2.4604769
2.8243208 26.765476 2.5257978
2.8468218 26.857937 2.4511838
2.9149737 27.080004 2.4542935
2.844929 27.234821 2.5388474
2.8695168 27.474255 2.508224
2.936718 27.664513 2.4549301
2.8344569 27.83107 2.4939442
2.9207571 28.056892 2.4967079
2.8414841 28.294426 2.5358639
2.9142933 28.483006 2.4917951
2.8332109 28.706314 2.506511
2.8467369 28.926445 2.4738898
2.8381371 29.06629 2.4908066
2.8630502 29.315157 2.553462
2.8489513 29.439648 2.4632142
2.848043 29.631516 2.4983535
2.8529434 29.898832 2.5328383
2.8396749 30.121964 2.5635724
2.8406286 30.295206 2.5238769
2.8575535 30.987513 2.4217198
2.9177496 35.385925 2.5020108
2.910547 35.437664 2.5292511
2.902477 35.687347 2.4574194
2.911124 35.917816 2.5004988
2.8896117 36.099224 2.4994078
2.9073076 36.303623 2.5120916
2.9422898 36.438385 2.5333962
2.9005432 10.840858 2.6001563
2.9261668 18.863903 2.6974206
2.9423671 19.074276 2.6207764
2.8393917 22.811054 2.6747732
2.8666439 24.19294 2.6391647
2.8912163 24.281693 2.6555243
2.8737726 24.471928 2.7134616
2.839004 24.673847 2.7072775
2.8697724 24.907043 2.708168
2.8480289 25.140804 2.727221
2.8953266 25.302807 2.7177963
2.8710651 25.466824 2.7137251
2.918432 25.723988 2.6931372
2.9064066 25.87023 2.6487079
2.9239287 26.074493 2.675215
2.8550406 26.321253 2.6453331
2.9079099 26.450468 2.7035069
2.8395326 26.747181 2.6586776
2.8447328 26.847055 2.6384454
2.8470922 27.044308 2.7037876
2.8447161 27.24581 2.6480639
2.8580844 27.468025 2.7122605
2.8427935 27.728832 2.6640749
2.8574314 27.924816 2.6792419
2.8722224 28.097975 2.714952
2.8531399 28.243971 2.6982541
2.8627112 28.486271 2.6566808
2.8900294 28.654696 2.6982579
2.8345599 28.892832 2.6719422
2.8502803 29.036606 2.7268801
2.8599873 29.308182 2.6863737
2.8989897 29.498592 2.6663113
2.8377507 29.735001 2.6896691
2.8647771 29.920528 2.7060759
2.8446517 30.135023 2.6929274
2.8770361 30.296925 2.6708341
2.8993731 30.875519 2.6961114
2.8232608 35.382225 2.7127066
2.8935888 35.462753 2.6537585
2.8544588 35.738098 2.6025376
2.8676734 36.11031 2.6412067
2.8758776 36.33783 2.6463137
2.9331412 36.432114 2.6832089
2.9109037 24.286209 2.9076881
2.9026656 24.634262 2.8004847
2.8962643 24.942387 2.8265774
2.9011199 25.03594 2.8345368
2.9024904 25.284023 2.8556232
2.858757 25.437588 2.800992
2.8580849 25.784018 2.8290417
2.8591313 25.83535 2.8372881
2.851335 26.141758 2.8588145
2.8518701 26.228891 2.8383968
2.8669899 26.490181 2.8333721
2.8402307 26.714813 2.8544712
2.871377 26.962322 2.8938985
2.8588901 27.077602 2.9177699
2.8611588 27.316107 2.8781731
2.8412752 27.720133 2.833838
2.8457708 27.925371 2.9576406
2.8734345 28.345747 2.8670588
2.8491838 28.512514 2.8848565
2.8805645 28.717424 2.863724
2.8593493 28.908955 2.8074579
2.8636079 29.115078 2.8598166
2.8696923 29.269808 2.8894815
2.8930783 29.457825 2.8661361
2.8861861 29.7703 2.8352044
2.8674049 29.904558 2.8450818
2.8726201 30.112888 2.8780236
2.8797941 30.289608 2.8374646
2.8029392 30.542944 2.8600881
2.8984752 36.357719 2.9247975
2.8929067 36.431328 2.8076417
2.9300611 36.417488 3.117408
2.9246686 36.464211 3.3533349
3.0566502 -8.9208584 -0.45101392
3.0751071 -4.0435152 -0.31840906
3.1601467 -3.9650297 -0.25559464
3.0672174 -8.940218 -0.13191187
3.1624775 -8.6101847 -0.18024686
3.0862203 -8.5745687 -0.043806687
3.191453 -4.6116242 -0.061919317
3.1359839 -4.1251101 -0.075754255
3.0907879 -3.8503706 -0.066784739
3.043396 2.1771564 -0.058939718
3.1059439 2.2670238 -0.047241032
3.1740928 2.4958775 -0.033895962
3.1172042 2.6738067 -0.10564537
3.134583 2.9163811 -0.10190057
3.0466266 3.3109164 -0.066313446
3.1267877 -8.6120138 0.016699955
3.1715379 -4.3453631 0.050291598
3.108407 -4.0270157 0.088914528
3.1462584 -3.9170752 0.01955859
3.0567448 2.112329 0.033099279
3.0602922 2.2579241 0.10673829
3.1817579 2.5201135 0.14799678
3.0848367 2.7403438 0.054176386
3.1202807 2.8508401 0.12552804
3.1135998 3.2607505 0.11151362
3.0665193 -9.0005922 0.22802055
3.0068486 -8.9277363 0.20019667
3.1097891 -8.6190777 0.24709892
3.1964653 -4.5254555 0.28572017
3.1827464 -4.320713 0.367351
3.1634398 -4.0248218 0.26770851
3.1170831 -3.8745353 0.26802003
3.0981195 1.9984217 0.23541015
3.1205845 2.1098094 0.26323771
3.0553107 2.3017356 0.38876927
3.1557555 2.4928484 0.32861534
3.0552249 2.7249756 0.26400825
3.1102829 2.8715925 0.3207739
3.059695 3.3304782 0.24777146
3.1321988 -8.9458876 0.47640437
3.0770369 -8.631731 0.56132579
3.1271944 -4.0759487 0.44257024
3.0716395 -3.9221044 0.48729771
3.1323051 1.9716272 0.50082356
3.0544286 2.338321 0.51827252
3.1215315 2.5440602 0.5143773
3.0685425 2.6838038 0.52866822
3.027492 2.9138415 0.45973957
3.0833945 -4.6300988 0.79974067
3.1100674 -3.8042302 0.61430949
3.0700827 2.6798024 0.68706918
3.1849098 -9.3755417 0.95427203
3.1598549 -4.5588112 0.90558839
3.0286095 3.3504162 0.82378656
3.0285759 3.4082201 0.82401502
3.1080675 -9.4667654 1.0497396
3.1550169 -5.0657721 1.0548437
3.1617606 -4.6391482 1.0773602
3.141603 -4.5763416 1.0305147
3.1684332 -9.5795841 1.2172354
3.1722889 -4.6292472 1.2677858
3.1514137 -4.5938096 1.3588078
3.1830359 1.7352843 1.2892306
3.126302 1.8076668 1.3819233
3.0541422 2.1382577 1.323969
3.1539216 2.344229 1.2946292
3.0838861 2.5401483 1.2542644
3.0773768 2.6997008 1.3141186
3.076889 2.8803177 1.2690656
3.0864031 3.104655 1.3176653
3.0934057 3.3377876 1.2910873
3.0993869 3.4677763 1.3071465
3.0432496 4.9220438 1.3661187
3.116833 -9.6375256 1.4601876
3.1179492 -9.5969296 1.5631864
3.1681314 -4.9312091 1.5155257
3.1782489 -4.6852608 1.4884424
3.0962873 1.6483121 1.4360447
3.03634 1.9024506 1.4554338
3.0956454 2.3566844 1.5447996
3.152854 2.5589833 1.4548239
3.1268725 2.6741819 1.4702195
3.1078198 2.8899922 1.5084287
3.1096871 3.0683823 1.5045074
3.0693359 3.3506675 1.4677596
3.0819511 3.4572613 1.4946662
3.0252171 4.7816734 1.5998861
3.1289396 4.8224492 1.4163734
3.1075466 5.7206326 1.534716
3.0613012 6.6799335 1.5912938
3.0798268 9.1022243 1.5209106
3.0988073 9.3069515 1.4833474
3.1101961 10.723202 1.5158794
3.0648389 10.947126 1.5117835
3.1022642 11.340668 1.5308635
3.1257973 11.443682 1.4683672
3.0204461 18.908222 1.5014697
3.1428494 19.607128 1.4144534
3.1127341 20.642057 1.5394737
3.1798408 -5.0888329 1.6001768
3.1216803 1.6988721 1.6806345
3.1501191 2.342227 1.7402244
3.1325741 2.5745902 1.6982794
3.111352 2.6653202 1.7285185
3.124548 2.925355 1.7450888
3.1042576 3.1116452 1.6852716
3.0823581 3.3177419 1.6720719
3.114249 3.4238424 1.6939646
3.0574503 4.7397327 1.6773169
3.0012522 4.8296275 1.7770101
3.081614 5.5479932 1.7573129
3.0639496 5.7051678 1.7491806
3.0661662 6.5119572 1.7578607
3.0974298 7.2899637 1.728911
3.094243 7.4920473 1.6778227
3.0793879 7.6951647 1.6239338
3.1337352 8.5880451 1.7086873
3.1748168 8.9717283 1.7659063
3.1112967 9.1143894 1.7055945
3.1355066 10.59181 1.6234685
3.0624161 10.698279 1.6937352
3.0746436 11.089592 1.670105
3.0848064 11.368547 1.6686841
3.069315 11.48451 1.6995287
3.1530492 12.613533 1.6690637
3.1592331 13.276951 1.7545652
3.0736468 13.58284 1.7680808
3.1438422 13.708914 1.766722
3.0996985 18.930252 1.7359617
3.0460455 24.33308 1.7390034
3.0970426 2.3613315 1.8392035
3.1363993 2.5632219 1.8462815
3.1286311 2.6451802 1.875917
3.1170273 2.8866534 1.8800331
3.1206498 3.078166 1.9241157
3.1128609 3.2485418 1.8814472
3.1064014 3.4710431 1.858412
3.0666173 4.7295151 1.8276622
3.0251031 5.0824494 1.8541019
3.07687 5.7189541 1.9447353
3.0351782 5.8286228 1.9260701
3.1725142 6.3530922 1.9363754
3.0248852 6.5552759 1.9166161
3.0962157 7.3358803 1.946485
3.018096 8.2662249 1.828607
3.1156998 8.5498371 1.8605912
3.0607655 9.0640459 1.8968052
3.1998539 10.573229 1.8246489
3.0342989 10.732798 1.8909936
3.0572028 10.859188 1.9087389
3.0988908 11.102612 1.9647396
3.0006547 11.311846 1.8149568
3.0654283 11.477179 1.8765459
3.0643096 12.509558 1.874434
3.0118854 12.603327 1.8658223
3.11766 13.35788 1.8255851
3.1539526 13.773728 1.8083316
3.1409349 13.857494 1.9168509
3.17802 18.772995 1.9725708
3.0741315 18.90045 1.895519
3.0888746 19.050972 1.93128
3.0288162 19.320274 1.8362772
3.1379151 19.459488 1.9921339
3.1891267 22.672895 1.9566603
3.0847335 22.86549 1.889853
3.1455069 23.030378 1.8850706
3.0055776 27.549475 1.9257056
3.0023043 27.823618 1.9204583
3.0417607 36.572582 1.9898694
3.1179914 2.9207206 2.0065725
3.107986 3.1249104 2.0112712
3.1181619 3.2950699 2.0231915
3.0787311 3.4279385 2.0305862
3.1139729 5.4391599 2.0329106
3.0980096 6.3415775 2.0850112
3.0945983 7.3724937 2.0823991
3.1027584 8.378211 2.136487
3.0444841 9.027235 2.0599518
3.1022599 10.591908 2.038578
3.0709076 10.690702 2.0583572
3.0475321 10.962528 2.1438353
3.0215335 11.040096 2.053112
3.0240688 11.2487 2.1713204
3.0459208 11.486654 2.129724
3.1331136 11.603586 2.1132679
3.0716875 12.540888 2.0735455
3.1143713 13.271715 2.1541028
3.0342906 13.401515 2.0275118
3.1934507 13.877258 2.0910878
3.1651506 18.792355 2.1065388
3.1244028 18.835508 2.1383867
3.0751357 19.081211 2.1519508
3.0137284 19.334051 2.1751053
3.0205128 19.457779 2.105386
3.0924067 22.690428 2.0796914
3.1541634 23.070631 2.047847
3.0022511 24.256546 2.1049359
3.015311 25.706753 2.1414406
3.0157568 26.095869 2.1464105
3.0273917 26.562368 2.1517265
3.0593734 26.969175 2.155529
3.0682423 27.394588 2.160161
3.0588694 27.629387 2.1633134
3.0940051 28.288826 2.1695027
3.0994043 28.973511 2.1768727
3.1359949 29.580467 2.1822329
3.1363912 30.271669 2.1666813
3.0785766 10.559032 2.235425
3.0920892 10.698944 2.2619514
3.1115952 10.981432 2.2526386
3.0214341 11.105305 2.2824056
3.0199556 11.342371 2.2784483
3.0273328 11.462137 2.365499
3.0018451 12.358824 2.3092642
3.101378 13.30187 2.2213783
3.1761427 13.943617 2.2643962
3.0559216 18.957581 2.3049116
3.0479152 19.467838 2.3322933
3.0828009 22.781008 2.3169627
3.0630798 22.897871 2.2445507
3.1580493 23.06566 2.2110796
3.0200415 24.312317 2.2764182
3.0732288 24.508938 2.2520947
3.0000319 27.338779 2.3938177
3.1282563 30.322983 2.3243222
3.1119044 30.754944 2.2371509
3.1826675 31.199566 2.2570813
3.1064665 35.331116 2.3332455
3.0596678 35.412193 2.3002813
3.0349126 35.710125 2.3585148
3.0940704 35.941299 2.2567849
3.1402855 36.006561 2.2916319
3.0746291 36.469597 2.2711644
3.018116 10.554229 2.4812727
3.1918137 13.18416 2.4217691
3.0922914 13.237533 2.4152241
3.155642 13.994473 2.4484332
3.1892059 18.78727 2.5838556
3.0730896 18.881474 2.4518232
3.1272073 19.506035 2.5392239
3.12292 22.343084 2.5050385
3.1441426 22.476133 2.5762506
3.0592589 22.623158 2.4897623
3.0112438 22.841499 2.5641186
3.0377355 24.29925 2.5124135
3.0867648 24.478512 2.5853889
3.0267797 25.532955 2.4995122
3.0282371 25.97607 2.5297122
3.0155048 26.389446 2.5583992
3.0249481 26.812344 2.5883563
3.0379806 28.590118 2.4459982
3.0223982 29.036688 2.4652836
3.0299535 29.435947 2.4822176
3.0224397 29.881622 2.5014703
3.0971632 30.18837 2.5087709
3.0637255 30.23741 2.5079885
3.1790729 30.659372 2.5029676
3.1735406 31.182848 2.4090393
3.0234556 35.374275 2.5414987
3.0533381 35.452652 2.5079486
3.0335181 35.712852 2.4059701
3.1150212 36.05835 2.5065017
3.0397398 36.497154 2.5251579
3.1374855 18.83143 2.6084604
3.0672908 24.281231 2.6554737
3.006995 24.594887 2.629998
3.0358901 27.225342 2.61798
3.0389132 27.658707 2.6494217
3.0521035 28.281048 2.695049
3.0890722 28.903954 2.7411263
3.0997043 29.31424 2.7716885
3.08356 30.113445 2.6662188
3.0660129 30.321012 2.6913342
3.1395447 30.586439 2.7443874
3.1341338 30.699368 2.6252818
3.0872161 35.440712 2.6059704
3.0521815 36.073059 2.6325037
3.1730485 36.495846 2.7348573
3.000248 26.623192 2.8497186
3.0846388 29.699514 2.8007295
3.092073 30.18029 2.8369751
3.1004691 30.337017 2.8301072
3.1738923 36.434601 2.8413978
3.1724896 24.357121 3.0982671
3.0134518 36.426033 3.0640888
3.0125914 36.547092 3.2763472
3.2062731 3.2941604 -0.69656169
3.3724811 -8.8681984 -0.50146145
3.3530927 -4.3538847 -0.40468588
3.2955658 -8.7982683 -0.30406776
3.2294858 -8.5470362 -0.29329643
3.385627 -4.587378 -0.25006026
3.3075411 -4.1313486 -0.22218898
3.2577724 -3.9435287 -0.26307645
3.3130317 -8.8474216 -0.078843527
3.2268994 -8.607708 -0.074733123
3.2967653 -7.8130708 -0.15600237
3.368228 -4.5264578 -0.1775431
3.3029976 -4.258616 -0.0916228
3.3253407 -4.1010628 -0.10610959
3.2850516 -3.8980756 -0.16707096
3.3706722 1.7455765 -0.15020733
3.3685431 1.8592565 -0.13030462
3.2159836 2.205488 -0.10224649
3.3044329 2.4838307 -0.023650603
3.2740748 2.8696475 -0.10302174
3.3719575 3.3285232 -0.09382695
3.3444228 3.4888146 -0.039831862
3.3686051 -8.8518257 0.078830235
3.2741442 -8.5915661 0.13896768
3.237359 -3.8869421 0.12138717
3.378834 1.7573956 0.094828308
3.3600197 1.8373523 0.12229726
3.2688112 2.2298112 0.099958718
3.3382559 2.4879217 0.15802583
3.3662837 2.7547624 0.11897534
3.2672992 2.848742 0.08369264
3.2618895 3.9023938 0.06856928
3.3518293 4.1514449 0.115876
3.3830061 7.7753835 0.13591543
3.3748546 8.1874676 0.14852718
3.341444 8.3322086 0.12545779
3.3922822 8.5644588 0.1790327
3.350208 -8.8582487 0.25744292
3.245733 -8.6089697 0.32890543
3.2553754 -8.5946426 0.24284452
3.3423891 -4.6128674 0.267142
3.224014 -4.0688734 0.28443542
3.2371202 -3.9046879 0.30716282
3.3721273 1.8910396 0.27788386
3.2989216 2.2538576 0.27668229
3.2772799 2.4803553 0.3027896
3.3185596 2.721344 0.28943244
3.2565408 2.8192267 0.31545651
3.3741436 3.3737664 0.22320786
3.3512552 -8.8745155 0.56689513
3.2350969 -8.6250572 0.51162744
3.2354813 -4.1103549 0.51462823
3.2856185 -3.9062219 0.54136634
3.35429 1.6266772 0.50501919
3.3912389 1.8811128 0.43185896
3.2839317 2.1694484 0.53781903
3.2905247 2.2876952 0.49927855
3.3054564 2.696265 0.45155078
3.3579886 2.8319683 0.43535608
3.3838797 3.8269365 0.47609499
3.3687425 8.6652184 0.50098044
3.3317137 -9.2476778 0.78653347
3.3182294 -8.8846884 0.65994668
3.3237534 -4.4654307 0.70358813
3.2482564 -9.5765381 0.84758073
3.2375524 -9.3186178 0.88856524
3.2731357 -4.6315479 0.89132982
3.2656035 -4.5457759 0.89547276
3.2473545 -9.6099167 1.1757548
3.3883882 -9.5453625 1.1303278
3.2266536 -9.35289 1.0418139
3.3923559 -5.4189529 1.0163107
3.2886052 -5.3238297 1.0179421
3.2747369 -4.9290729 1.0382476
3.2522187 -4.6239014 1.1079606
3.2882891 -4.559989 1.0792871
3.2653961 2.7025003 1.1255205
3.3116202 -9.3536005 1.2936311
3.291307 -5.4537282 1.2775452
3.3229804 -5.2714624 1.3250184
3.3182688 -4.6451497 1.3178086
3.265655 -4.5494251 1.3144312
3.2532971 2.3047523 1.2946761
3.2602372 2.5704615 1.3140029
3.3058467 2.6703916 1.3124267
3.3247116 3.4057541 1.3256234
3.2909873 -9.6271868 1.4762135
3.2909396 -9.5755901 1.4518118
3.3050668 -9.3297863 1.4757817
3.3475785 -5.4382095 1.4788638
3.3185437 -4.9009876 1.4414856
3.2559383 -4.6379771 1.4901421
3.2548451 -4.5985899 1.5879519
3.2225018 1.7287929 1.4290659
3.3842742 2.0875673 1.5886099
3.277154 2.3185511 1.4352165
3.2594023 2.5895281 1.4914737
3.2331722 2.649071 1.5028524
3.2895179 3.3722167 1.5412476
3.2904923 5.3621578 1.5042731
3.232511 5.4380279 1.5124902
3.3255515 7.5785527 1.5963552
3.3376737 10.748132 1.5305133
3.2217958 1.9136698 1.7343397
3.2831583 2.088871 1.731791
3.3133233 2.5775685 1.7625296
3.221333 2.6447952 1.6876465
3.2494307 3.2576785 1.7345383
3.3422897 3.4657862 1.7056026
3.2707667 5.3474989 1.7401475
3.2334907 5.4916472 1.7501466
3.2484446 6.2722864 1.7548361
3.3447878 6.7748928 1.6355385
3.2442489 10.691023 1.6696378
3.3073697 11.478182 1.6936915
3.2897384 12.340816 1.6716231
3.2141619 12.456931 1.6694646
3.3281081 14.320468 1.7830774
3.3831196 14.477383 1.7173877
3.3822427 14.93053 1.7274338
3.2875063 18.850456 1.6974905
3.3710794 24.490196 1.6569626
3.2163181 2.580579 1.8781916
3.3344393 2.6815543 1.8283031
3.2392697 2.918654 1.8835422
3.244777 3.3634999 1.9336065
3.2228675 3.4751348 1.9195192
3.2244353 5.4792242 1.9183352
3.227139 6.3910041 1.8929185
3.3020296 7.2814236 1.8640652
3.2951698 10.720705 1.8967383
3.2419615 11.501734 1.9015596
3.2542536 12.372903 1.8737783
3.3700457 14.187801 1.8464787
3.3933737 14.202646 1.9166081
3.3996944 14.41123 1.8506147
3.3672359 14.674172 1.837606
3.3226321 18.880695 1.8896418
3.2957387 19.12396 1.8014926
3.3317809 19.465839 1.9154204
3.2858841 22.092045 1.9402883
3.393188 24.302773 1.8482242
3.3630228 34.987236 1.8854328
3.2021835 35.129471 1.890962
3.3949227 36.592056 1.960773
3.3387742 3.3748918 2.0839887
3.3549879 5.4844527 2.0526779
3.2136064 6.3080397 2.0894487
3.2502065 7.193697 2.1846356
3.3091397 7.2483692 2.162714
3.3160133 10.679101 2.0623322
3.3063846 11.503293 2.133008
3.2368209 13.17944 2.1533329
3.3045809 13.271371 2.0535464
3.3494525 13.991366 2.1415498
3.3556688 14.126428 2.0552721
3.391053 18.916454 2.1859035
3.3195274 19.588373 2.1270657
3.3023837 19.614624 2.1506915
3.2300932 22.1698 2.0289457
3.2988923 22.370062 2.1758254
3.2738466 22.46607 2.0971336
3.3044999 24.233921 2.0529833
3.3712201 25.14324 2.1051173
3.334156 25.527075 2.1146655
3.3282776 26.107849 2.1321697
3.3978715 26.491257 2.1480937
3.3375545 26.928694 2.1578598
3.2604828 30.284649 2.1327929
3.2827158 11.459903 2.2787881
3.2919588 11.631554 2.3353646
3.2504146 13.167711 2.2215695
3.3696837 13.912203 2.3221049
3.3586323 14.518009 2.2769716
3.2092626 14.642102 2.3931258
3.3791578 18.890121 2.2904363
3.3976769 19.021168 2.2423992
3.3250422 19.632994 2.3082407
3.2269387 22.136019 2.317112
3.3443074 22.320961 2.2520456
3.2716722 22.475147 2.308517
3.3779287 24.30328 2.2912655
3.3612726 30.281952 2.3295326
3.2494957 30.778811 2.257699
3.3198576 35.376232 2.2406435
3.213295 35.523094 2.355402
3.2684398 35.924751 2.2295165
3.2596395 36.105011 2.3032229
3.3656607 36.378235 2.3512726
3.3383341 36.477928 2.3119931
3.3976333 36.621468 2.3281615
3.3043797 10.532164 2.5140901
3.256161 13.171849 2.4276831
3.3278384 13.880351 2.4553831
3.3134155 18.907509 2.452666
3.29248 19.496868 2.4460175
3.3581717 21.294704 2.5177186
3.3697107 21.412018 2.5279722
3.2136993 22.176558 2.4419436
3.3130596 22.503937 2.4628487
3.3310161 24.307518 2.5210733
3.2774463 30.283773 2.4954364
3.2220564 30.771259 2.4440427
3.2790947 31.156281 2.5588861
3.2983017 31.277548 2.5668435
3.2107005 36.045658 2.4741688
3.3784227 36.435307 2.4737236
3.2086239 18.860279 2.6227314
3.3491707 19.49634 2.634346
3.3688405 24.309559 2.6856077
3.2031789 24.511784 2.6362
3.2762721 30.342026 2.6866283
3.3248439 36.123417 2.6042237
3.331995 36.446709 2.7152014
3.3572721 24.283472 2.8361464
3.3382869 30.319435 2.832087
3.2520399 36.343887 2.9634519
3.319984 36.474884 2.8686776
3.2945752 36.454292 3.0713389
3.2727256 36.535961 3.3097286
3.4151392 -7.6621046 -0.44079861
3.4064875 -4.8159008 -0.43706191
3.5507493 -4.2325163 -0.40125668
3.5537863 -5.7554297 -0.26549119
3.5523825 -5.5250912 -0.23470426
3.5562165 -4.8130355 -0.31537846
3.5844574 -4.6864233 -0.30251142
3.5408196 -4.2206516 -0.29561311
3.5577607 -3.9345634 -0.26555589
3.5580521 -3.7467313 -0.22258675
3.5431657 2.9487946 -0.23979308
3.5865128 3.3173738 -0.24299917
3.4851637 -8.863718 -0.12196185
3.5803249 -7.8282809 -0.12233379
3.412204 -7.7569776 -0.1601036
3.4011097 -7.4028912 -0.15381946
3.5214097 -5.0160751 -0.16505985
3.5330629 -4.7202425 -0.13779756
3.5434151 -4.2371626 -0.15407604
3.5577512 -4.0563059 -0.12622628
3.5459678 -3.9062035 -0.11060211
3.4946055 -3.791755 -0.051439937
3.5053387 1.8896854 -0.12436649
3.502769 2.044075 -0.10928155
3.5544724 2.2121742 -0.025787324
3.4544692 2.5214157 -0.071905628
3.5101414 2.9325082 -0.091375113
3.591696 3.0820343 -0.031209722
3.5991955 3.6029472 -0.15607801
3.4949818 -8.8681507 0.19844019
3.4156899 -7.4048147 0.12886366
3.5417652 -4.9546661 0.12245926
3.5219154 -4.4362216 0.19140847
3.5383873 -4.2939777 0.083288729
3.5576403 -4.1710615 0.067002796
3.5554969 -3.9127276 0.083028033
3.5589244 -3.7236826 0.011882529
3.4851387 1.9289576 0.10248064
3.5196056 2.0346532 0.0667326
3.5089779 2.5091782 0.11560319
3.5685821 2.9831414 0.053378336
3.5634871 3.1714554 0.14374556
3.5958717 3.2450128 0.1460481
3.569845 3.5583994 0.032683745
3.5828962 3.720536 0.1472877
3.5830429 7.5313196 0.16010815
3.4292393 7.8132019 0.13949968
3.5101781 -8.840519 0.23426758
3.4755104 -5.8497362 0.35800636
3.519278 -5.3093848 0.21999761
3.5241408 -4.2670045 0.27027839
3.4556265 -4.0250025 0.23015219
3.486752 -3.8774214 0.25855163
3.4344785 1.744525 0.30470636
3.5133505 1.8579638 0.29375333
3.5075853 2.113987 0.31578222
3.5725346 2.2448297 0.21021923
3.5009422 2.5380638 0.27137041
3.4847691 2.9251313 0.22318238
3.5686734 3.0550494 0.25515142
3.5661259 3.211386 0.38152972
3.4982986 5.9874125 0.35962784
3.4362259 6.5366664 0.3314026
3.4991608 6.6595774 0.38982862
3.4344406 -8.8773937 0.50302815
3.5571539 -5.2028446 0.50233221
3.4551773 -4.0381746 0.46221501
3.4883606 1.8619368 0.53884351
3.5343435 2.0633965 0.51231921
3.4771409 2.4976492 0.48933136
3.4913175 2.88695 0.50971401
3.5457621 3.3738256 0.46589953
3.590605 7.5921593 0.44895521
3.4921885 7.7584867 0.42803887
3.4862442 7.8549442 0.43443286
3.4149256 8.3111658 0.43864864
3.4180706 8.4759226 0.45893145
3.4067941 8.6920271 0.48290402
3.4431219 8.9502487 0.48770013
3.4592628 9.153162 0.46037734
3.4036779 -9.311533 0.70806724
3.4777484 -4.5597897 0.7568835
3.5565379 -4.6382022 0.97813636
3.4493594 -4.382206 0.8983494
3.4991536 -9.3249092 1.0521132
3.4265201 -4.6497421 1.02425
3.4728673 -4.5223312 1.0723006
3.5850167 1.2486306 1.0583698
3.5008399 1.6770445 1.1826274
3.5032411 2.6578586 1.1829717
3.469064 -9.608881 1.2524264
3.4061935 -9.5645037 1.3276122
3.4752731 -9.3547783 1.361622
3.4570189 -5.1916089 1.2322264
3.5481043 -4.6484709 1.2553549
3.5680408 -4.5818377 1.3799222
3.552892 1.5115011 1.2461351
3.4070709 1.6865875 1.2651757
3.573204 1.9672316 1.2829382
3.4442406 2.0210476 1.280302
3.472549 2.2042212 1.3025091
3.521172 2.6650085 1.3109716
3.4560325 3.3988314 1.352402
3.5713763 3.5067739 1.3337553
3.4066131 -9.6492691 1.4297321
3.4362655 -9.5795727 1.4405277
3.4676037 -9.3419952 1.4729273
3.4827933 -5.3364058 1.4416057
3.4583654 -4.721487 1.4642112
3.4947588 -4.5058446 1.4779969
3.5987473 1.4594159 1.4148155
3.5698037 1.925285 1.5241523
3.4212739 2.0791931 1.4545869
3.4919267 2.6428826 1.5240508
3.4595146 3.4406285 1.4385602
3.4001331 10.742219 1.5420357
3.4656549 11.570168 1.5832651
3.4248996 18.866817 1.4765381
3.5988102 1.1775074 1.7452836
3.5743537 1.8387033 1.6787192
3.4455118 2.1784792 1.7240808
3.5090907 2.6488285 1.6744608
3.433557 3.37307 1.6641321
3.5271924 3.4743907 1.6808795
3.5764499 10.710455 1.6430483
3.4983072 11.511555 1.7319678
3.403523 14.828163 1.7236012
3.4797244 18.936769 1.7087345
3.5084763 24.523867 1.6489953
3.5072362 2.1884391 1.820639
3.5358491 2.6486816 1.8495049
3.5229983 3.3827991 1.8112469
3.4786282 3.4508953 1.8223983
3.4848552 10.737816 1.9124827
3.4075646 10.846439 1.8971796
3.5693848 11.509578 1.9325597
3.4530449 13.164843 1.8714018
3.4054472 14.042982 1.9103041
3.5459225 15.563544 1.8081396
3.5221786 18.831718 1.9442186
3.417171 19.400339 1.9946889
3.5333533 21.433899 1.9951458
3.5293124 10.722244 2.037384
3.5610049 10.994204 2.091644
3.5459254 11.511505 2.164103
3.4423621 13.270081 2.1901937
3.4517255 14.476328 2.0808992
3.5602474 15.475088 2.0091445
3.5033813 18.744198 2.0904899
3.524334 18.825317 2.0253744
3.4453778 19.476364 2.0878894
3.400589 21.208357 2.1239114
3.5357289 21.557987 2.0700688
3.5640292 22.293667 2.1612093
3.5064845 24.168678 2.1813674
3.5345602 24.233759 2.1194143
3.4130361 27.361797 2.175663
3.4905696 30.304592 2.1600642
3.5137424 10.683979 2.2365704
3.5061667 11.495037 2.3131654
3.4535868 13.326728 2.2994654
3.4613712 14.455714 2.3098774
3.5753393 15.479222 2.2828674
3.4089174 18.794622 2.2138317
3.435703 18.927841 2.3578634
3.4815838 19.495667 2.2774887
3.5842762 20.562595 2.3927915
3.5866878 20.661924 2.3966029
3.480885 21.386503 2.2833006
3.4232771 21.411345 2.3986526
3.5099647 22.352438 2.337666
3.5383713 24.237354 2.2768326
3.4909992 24.496098 2.2582421
3.5092196 30.290535 2.2428524
3.5521975 30.404352 2.218416
3.5181241 36.262627 2.3678918
3.4352293 36.470551 2.3039198
3.5428348 36.613396 2.3500493
3.4997606 36.964844 2.3818684
3.4210029 37.504845 2.3940022
3.4013233 37.73304 2.3241322
3.4383154 13.871472 2.4643834
3.4609175 18.87719 2.519448
3.4799595 19.480713 2.5245774
3.4333274 21.553137 2.5433803
3.4734707 22.307539 2.5484343
3.4719598 24.310753 2.5283542
3.4742141 24.454353 2.5399592
3.5185785 30.316278 2.4809132
3.5152733 36.3181 2.5198419
3.414685 36.504616 2.538002
3.4614966 36.653419 2.4154177
3.5133226 37.020935 2.5495808
3.4179339 18.855328 2.6103027
3.4940863 22.313389 2.6790659
3.4672303 24.280827 2.6875794
3.5184031 24.42767 2.6773441
3.5289888 30.098036 2.6415877
3.4576414 30.273937 2.6453018
3.5705833 36.257599 2.7202721
3.4683456 36.45401 2.6884203
3.4306927 36.619606 2.6742597
3.5246799 37.076828 2.703028
3.4246635 37.463833 2.7759042
3.4546373 24.254318 2.8378294
3.448987 30.306225 2.8065279
3.4667711 36.064728 2.9410822
3.5130951 36.333717 2.889087
3.5346055 36.415726 2.9446547
3.5374322 37.155334 2.8849134
3.468298 37.28759 2.9697192
3.5013082 37.402958 2.866344
3.5041623 24.485809 3.0919309
3.4757407 36.44751 3.0409391
3.7416985 -8.8781071 -0.50773501
3.7162294 -8.6479273 -0.49567178
3.6861577 -4.3564138 -0.41280818
3.6001735 -5.4751425 -0.35253879
3.6045477 -5.1443205 -0.33435801
3.7295125 -4.0402155 -0.33491918
3.7788615 -3.9673057 -0.2324706
3.7642641 -3.6747675 -0.22240435
3.7160664 3.014255 -0.21342811
3.6224132 3.2578974 -0.21312144
3.6107955 3.5321732 -0.2260294
3.6533647 -7.6786976 -0.073094517
3.603945 -7.3941412 -0.069551796
3.7451248 -4.708622 -0.13808146
3.7380929 -4.2657948 -0.14349771
3.7643795 -4.088644 -0.14405422
3.6907976 -3.6694603 -0.091757327
3.7287226 -3.5526729 -0.027493201
3.6105814 2.02351 -0.14543784
3.7645819 2.2199609 -0.037547126
3.7997479 2.6953461 -0.08733172
3.6568785 2.9271295 -0.135263
3.6338696 3.0838857 -0.1252133
3.7124987 3.3496988 -0.11902722
3.6115327 3.6720107 -0.12212114
3.7919285 -8.8665276 0.17624138
3.6956515 -7.6577344 0.1727557
3.7089531 -4.5427666 0.041425161
3.6974273 -3.9020011 0.082622111
3.6853461 -3.6348467 0.12230115
3.7584624 -3.5675716 0.1167004
3.7758198 1.7909356 0.18959793
3.7661753 1.9797198 0.19128415
3.6851521 2.1375499 0.10130177
3.6670084 2.2739069 0.083797343
3.6782084 2.5189486 0.11213241
3.750284 2.7058158 0.13440964
3.7120636 2.8327584 0.15157598
3.6530747 3.1025457 0.11914162
3.6354637 3.3449624 0.085389003
3.6170547 3.4725573 0.02077261
3.6469815 3.7499671 0.17304942
3.7223897 7.5628858 0.13917923
3.6623805 -7.4532847 0.21509109
3.6002862 -5.0619702 0.38850117
3.692085 -4.6776443 0.25263
3.6016233 -4.506186 0.35848421
3.6015315 -4.2446227 0.3354339
3.74333 -4.0757456 0.2969203
3.6847157 -3.914176 0.26322824
3.7760568 -3.6741977 0.26411009
3.6242678 2.0386558 0.29330641
3.7001495 2.3521988 0.29211819
3.7362988 2.5275412 0.3045643
3.7520211 2.6648436 0.30206564
3.679523 2.8755155 0.33725244
3.6326621 3.0474539 0.33610809
3.6315579 3.6806951 0.2161285
3.6338754 6.3176889 0.37690625
3.681756 -8.8891945 0.55594981
3.7964652 -5.0656166 0.59335113
3.7931302 -4.6029348 0.53894466
3.7366147 -4.2888269 0.54846001
3.7713571 -4.1101789 0.53468239
3.7213521 -3.8395896 0.53751922
3.7435493 -3.7156153 0.50282431
3.7405782 1.860268 0.57981753
3.673672 2.2442684 0.44760063
3.7587545 2.4524415 0.50594562
3.7772973 2.7982552 0.50916678
3.7712021 2.8517308 0.50022882
3.7603557 7.5544415 0.45046723
3.7220712 7.6471119 0.4090791
3.75263 -9.2614002 0.75420678
3.6829019 -4.6494131 0.70140487
3.6857903 -4.5762 0.77681524
3.6967115 -9.5015516 0.80978155
3.7735491 -4.9019489 0.97577667
3.7442837 -4.6459694 0.88040388
3.6635232 -4.5645308 0.93394989
3.7046483 1.3108548 0.89614087
3.7075207 1.5570912 0.90875483
3.7193465 1.6392624 0.83258229
3.68822 -9.4550228 1.1262174
3.7092545 -9.2752428 1.1100322
3.6036122 -9.1923838 1.1649045
3.7501268 -4.6473236 1.0189652
3.7661171 -4.5700769 1.0596801
3.6701908 1.3025417 1.0968094
3.70012 1.4904861 1.0805678
3.6947126 1.6449637 1.0568259
3.7539015 2.6528435 1.1510235
3.6984291 -9.2942581 1.2898645
3.7628527 -4.6701336 1.2834538
3.6556222 -4.5662532 1.2903962
3.7399499 -4.3973379 1.269434
3.6742458 1.2496754 1.3156854
3.7146957 1.5211128 1.3312941
3.695363 1.6991098 1.2768788
3.7921906 1.964182 1.2681402
3.6963334 2.6982768 1.3111457
3.7467351 2.814054 1.3306265
3.7058964 3.0706408 1.2680821
3.7162428 3.3265121 1.3623478
3.7553878 -9.3381786 1.4390435
3.6531005 -4.6390257 1.4592491
3.717566 -4.5758753 1.5289186
3.7222948 1.3318775 1.5100738
3.6775711 1.4812418 1.5129257
3.744463 1.988763 1.4683646
3.6701055 2.598124 1.4980396
3.6964788 2.7166126 1.4793942
3.7572377 3.0103838 1.4355823
3.6181977 3.3623476 1.512405
3.7200947 3.4799891 1.482787
3.7737665 4.9691362 1.4750224
3.7811971 5.5006523 1.5168138
3.730067 5.7186565 1.5620618
3.7944655 7.0872045 1.5282824
3.7895982 7.5158329 1.5140324
3.7668138 7.6815057 1.558491
3.7419724 7.9174161 1.5632193
3.6179843 10.701603 1.4640779
3.7830589 -4.6401377 1.6267413
3.6482511 -4.5934815 1.6120414
3.6626611 1.1850014 1.7306225
3.7406025 1.3111461 1.7310672
3.6303134 1.7441901 1.6016552
3.7250571 1.953297 1.6180403
3.6975799 2.5978651 1.7220669
3.6886272 2.6532907 1.7434819
3.706408 2.9540358 1.7390503
3.7081699 3.3312159 1.7151177
3.6877995 3.4772487 1.6954763
3.7368507 7.5428123 1.7201164
3.7485964 7.7241516 1.7174361
3.7636929 7.8560305 1.6757512
3.7696342 8.0885239 1.6913581
3.7328405 8.2631083 1.7198648
3.7952344 8.639925 1.7153029
3.6822004 8.9267502 1.6473184
3.7113829 9.1368504 1.631979
3.7565877 9.3008528 1.6944284
3.7510877 9.4120331 1.7617944
3.793977 9.6982803 1.7247249
3.781662 9.8617039 1.6632018
3.7938056 10.092421 1.7366341
3.7988007 10.252319 1.7458911
3.6216114 10.618832 1.7977055
3.6477635 15.679701 1.6812598
3.6357436 18.903225 1.7925668
3.6760406 24.536919 1.7432679
3.6421018 2.5781581 1.8116105
3.6448088 2.6351168 1.8675683
3.7536156 2.8114891 1.8503723
3.7594647 3.1216869 1.8815411
3.7146349 3.3817801 1.9305553
3.6821206 3.4719832 1.9177532
3.7606366 5.5473328 1.9526553
3.7798669 7.3365202 1.8782017
3.7414851 7.5261488 1.8745806
3.7125006 7.7559328 1.9022435
3.776531 7.9381533 1.9059374
3.76595 8.1255608 1.8867977
3.7118628 8.2653418 1.8137194
3.7512956 8.5895691 1.8757633
3.7883682 8.9411964 1.8905464
3.7911139 9.0987253 1.9136738
3.7955921 9.2642698 1.9900945
3.7419944 9.6614361 1.8093536
3.7793944 10.275974 1.8730577
3.7722471 10.704775 1.8732772
3.7863438 11.281515 1.9616219
3.6439424 11.479513 1.9095668
3.7512646 13.352045 1.8657894
3.7563407 14.09136 1.8090805
3.6718087 16.130558 1.9803592
3.6918316 16.269619 1.9216201
3.7526057 17.463997 1.8638085
3.7041419 18.783855 1.8227886
3.6678069 18.843811 1.8957218
3.7039912 20.66827 1.8906112
3.6310768 20.843235 1.9298482
3.7399993 24.349159 1.8393772
3.6048024 34.927185 1.8749311
3.6400707 2.7145691 2.0128353
3.6967614 3.4515412 2.0261879
3.7335987 7.6391983 2.0322404
3.7545643 8.0609665 2.0058432
3.6985536 9.5896807 2.0783212
3.6669221 10.657057 2.1402249
3.7610557 11.287917 2.1437018
3.6466203 11.469677 2.0705707
3.6693032 13.291348 2.1365552
3.7075391 14.057273 2.0283258
3.7890956 14.534644 2.1066754
3.6174893 15.47047 2.0942183
3.6954937 16.204618 2.1896617
3.7483668 17.442335 2.0719926
3.6422093 18.850554 2.0593908
3.6747897 19.56452 2.111181
3.721951 20.697884 2.1152239
3.6110229 21.471375 2.1993268
3.7692568 21.927259 2.1316905
3.6596386 22.246042 2.1553726
3.6560667 24.352839 2.1275015
3.626724 24.42124 2.1397371
3.6917396 30.267111 2.1319056
3.703136 35.494331 2.120389
3.72347 8.153904 2.2020748
3.7606091 8.8345642 2.3134942
3.699203 10.613913 2.2042704
3.6240931 11.514069 2.349314
3.7774339 13.226469 2.2956245
3.6593015 14.079792 2.2478886
3.633065 15.667835 2.2272625
3.7063615 16.341516 2.2414472
3.7311606 16.410421 2.2690125
3.7290719 17.341427 2.2750063
3.7815702 17.489296 2.3548598
3.7216976 18.880543 2.233397
3.6345696 19.446579 2.2139375
3.6462007 20.692993 2.2663221
3.6232769 21.394623 2.2633536
3.7735493 21.919466 2.3168216
3.6080279 22.274685 2.33161
3.6100955 24.383492 2.208482
3.7945485 24.474611 2.3534927
3.6411803 30.27685 2.27811
3.6941447 30.840237 2.2128534
3.720268 31.082811 2.3574245
3.7238231 36.246483 2.3352065
3.7089379 36.561462 2.2784972
3.6795192 36.619473 2.3941486
3.6774459 37.161179 2.3640237
3.6669245 16.302753 2.4696846
3.7528188 16.543383 2.4191327
3.7188621 17.346626 2.5163491
3.7466319 17.540249 2.5660365
3.7979565 18.170959 2.528873
3.7785635 18.208389 2.5294719
3.773572 19.833719 2.5832479
3.6337554 20.785049 2.4046385
3.6448572 20.800444 2.4060187
3.6797109 21.562519 2.4444087
3.7733326 21.773178 2.4912724
3.606534 24.294056 2.4210782
3.6463597 30.269775 2.5409
3.684041 30.908995 2.4227931
3.7831256 31.096743 2.4967408
3.7069905 36.274273 2.4913425
3.7134602 36.582306 2.5574374
3.7537212 37.260429 2.5487421
3.6937709 21.704433 2.6642976
3.7091446 21.836998 2.6784151
3.7162373 24.309155 2.6433277
3.6518087 30.314972 2.7298226
3.678133 30.907181 2.6638296
3.7537777 31.144274 2.6367431
3.6815736 36.253311 2.66275
3.7491741 24.411465 2.8216856
3.7149651 30.308603 2.8306684
3.6557097 36.157814 2.8788908
3.6929288 36.225014 2.8747742
3.7256272 36.569744 2.8916435
3.7784731 37.162739 2.9512608
3.718226 37.202427 2.8136854
3.6010418 36.222538 3.0294981
3.9376874 -4.2462296 -0.41235071
3.8069611 -8.8349743 -0.21635033
3.9343574 -3.8457029 -0.27118593
3.814079 -3.7429028 -0.23222555
3.8579683 -3.5738416 -0.22493763
3.9644356 -3.1218717 -0.22832131
3.8722286 3.028259 -0.25937137
3.8937016 3.3007216 -0.22152272
3.836381 -3.8284664 -0.1379703
3.8498099 -3.6532736 -0.1304775
3.9051373 -3.4976668 -0.1196286
3.9263744 -3.3262572 -0.16317499
3.8652568 1.7903695 -0.19011149
3.9254308 1.8782996 -0.042383462
3.8511386 2.1567535 -0.11018361
3.9303586 2.2503059 -0.090065278
3.9612346 2.5113091 -0.093785606
3.8364165 2.6392784 -0.049466699
3.8079 2.8973939 -0.072842345
3.8928378 -3.6395104 0.081852682
3.8951962 -3.5683589 0.16397363
3.9363031 1.7364675 0.17979325
3.8887939 1.9297225 0.14667475
3.8704915 2.1695557 0.10774347
3.9326351 2.3346665 0.12656632
3.8472137 2.4624064 0.066347189
3.8345177 2.7531614 0.042667236
3.8083827 2.8414531 0.13349921
3.8100793 7.5967326 0.12572105
3.9076509 -3.810657 0.23576769
3.920516 -3.6651611 0.3055529
3.9655819 -3.5613828 0.20494878
3.988131 1.799174 0.38493699
3.8823018 1.8901821 0.32116243
3.8693414 2.1263766 0.28702101
3.9782336 2.3069537 0.22767548
3.9645872 2.4964523 0.3186391
3.8884516 2.6901355 0.35934767
3.9054294 2.8648012 0.32324594
3.8174777 -3.8909137 0.50953323
3.8814034 -3.6478553 0.43090004
3.8308127 2.110534 0.53852689
3.9004359 2.3369021 0.44780061
3.8536584 2.5308571 0.40214908
3.9013581 2.7211845 0.53335476
3.8687625 2.8313754 0.52467871
3.8310604 -9.2714024 0.74774742
3.8153126 -8.896409 0.62459654
3.9736347 -4.5052333 0.72836298
3.880302 -9.3073206 0.8591305
3.8040676 -5.4258194 0.84915918
3.8166265 -5.3340969 0.95019811
3.855154 -4.9327807 0.92825276
3.833292 -4.6265488 0.91058612
3.9331982 -4.4878588 0.87262106
3.9506485 -4.3598709 0.91041887
3.8631682 1.5240983 0.84693527
3.9558215 1.8269405 0.83622205
3.9280691 -9.6529465 1.1262612
3.8203506 -9.4455252 1.1206985
3.9217982 -9.2991886 1.0696154
3.8618016 -4.9076805 1.0611299
3.8382006 -4.6145334 1.1332932
3.8875728 -4.5343628 1.0964673
3.8638067 1.5489857 1.1514834
3.8749311 1.7073257 1.0379558
3.926337 1.9451888 1.0638727
3.9455831 2.0626593 1.0654073
3.9990482 2.7023582 1.1938276
3.8616924 -9.347517 1.3592998
3.834187 -4.6344614 1.3342417
3.8661704 -4.5037336 1.2902973
3.8552871 1.3871617 1.3164639
3.8620586 1.484852 1.3431727
3.8891673 1.7190037 1.3609
3.9404976 1.9297655 1.227464
3.9185705 2.0654058 1.2930198
3.8733816 2.2759585 1.3712277
3.8622217 2.507164 1.2496397
3.8695917 2.7120881 1.3348055
3.8648498 2.8546138 1.3017216
3.967032 4.3274984 1.3822005
3.9405918 5.0554829 1.3843648
3.9821372 5.217576 1.3528938
3.8322496 5.4982982 1.3201655
3.8289957 7.6408153 1.3727858
3.8862123 -9.3286085 1.4774274
3.8760958 -5.3027263 1.431718
3.8623722 -5.0744128 1.4040318
3.8567069 -4.6694217 1.4819018
3.8788903 -4.5001831 1.4807274
3.8408828 1.2659539 1.4144261
3.8584232 1.5621208 1.5019989
3.9003422 1.7554333 1.5294391
3.9314399 1.913516 1.4837379
3.9471004 2.0165009 1.5091711
3.8602197 2.3277314 1.5756621
3.9027622 2.4401574 1.4817069
3.9440742 3.1226947 1.4603837
3.8431463 3.3439994 1.4866712
3.9844117 4.1317711 1.5782946
3.9327424 4.3688588 1.5919211
3.9933381 4.5728512 1.5519207
3.9695666 4.7015562 1.5770025
3.9496384 4.8881083 1.4942698
3.9592848 5.0812664 1.5193816
3.9394639 5.3382378 1.4455395
3.9069061 5.4804306 1.4776518
3.9253538 5.6511011 1.4809134
3.9762902 5.98243 1.4901931
3.9452999 6.7446809 1.5769005
3.9517312 7.0350142 1.5011896
3.8753667 7.2868662 1.4808254
3.8350365 7.4871411 1.5027807
3.8923481 7.7345653 1.5160394
3.9212856 7.8621926 1.4765723
3.8499022 8.0998974 1.5348831
3.8868682 8.3025074 1.5046017
3.8518944 8.6779804 1.4761508
3.8161898 8.9212465 1.4793265
3.9863093 9.2692776 1.5403825
3.8492432 9.4313812 1.544111
3.9002924 9.7781658 1.4871593
3.8041995 10.150337 1.5908971
3.8832688 10.279659 1.5255897
3.8338175 10.462244 1.5919034
3.9437218 10.685114 1.501014
3.9496794 10.894041 1.5304983
3.9629295 20.37895 1.4177648
3.8069804 -4.537003 1.6010797
3.9634445 1.5132971 1.7805309
3.922241 1.7362156 1.6964488
3.9183109 1.8850317 1.7230686
3.9375439 2.1387072 1.7637829
3.8804672 2.6578453 1.6091911
3.8070192 2.9754267 1.643986
3.9715412 3.0389259 1.6476818
3.8513546 3.3704007 1.6456178
3.9644728 3.6895199 1.6990774
3.9804769 3.8944404 1.7475547
3.9969304 4.0960536 1.7292366
3.9790754 4.2806926 1.707478
3.926882 4.4027672 1.7404559
3.9545636 4.6916013 1.6764023
3.9265084 4.8593287 1.6393945
3.9047699 5.1080446 1.6586605
3.9514015 5.2926178 1.7412112
3.8944006 5.5120211 1.6920545
3.9330935 5.6958561 1.708975
3.9503961 5.9434271 1.681354
3.9100158 6.0423269 1.6939292
3.9082115 6.9517903 1.7159877
3.8847394 7.0478249 1.7001705
3.8270221 7.3836927 1.7883813
3.8867311 7.4659729 1.6984212
3.8501453 7.634253 1.6735725
3.9340982 7.8689909 1.7253338
3.880615 8.0420761 1.6626687
3.8708014 8.2298689 1.7573709
3.8529501 8.6685915 1.6650131
3.8537591 9.5689697 1.7233678
3.8443375 9.8088074 1.7964845
3.9281964 10.102783 1.7006021
3.9158356 10.339352 1.7437532
3.8782864 10.450113 1.6607049
3.8619084 10.635601 1.7661815
3.931102 10.965771 1.6544048
3.9231758 11.078151 1.6868403
3.9541705 13.833912 1.7980591
3.8298299 14.38168 1.6676298
3.9134781 14.556796 1.706409
3.9663532 14.695087 1.660684
3.8567767 2.6083641 1.8239194
3.8241446 3.3553469 1.8032199
3.9930182 3.4698544 1.81101
3.9748573 3.9080513 1.9626875
3.990119 4.1481428 1.8870835
3.9618089 4.47752 1.8647609
3.9482358 4.709878 1.8436038
3.904114 4.9700522 1.8809357
3.9232755 5.0775557 1.8775526
3.926055 5.3011408 1.878165
3.9108391 5.4679956 1.8478558
3.9329672 5.7108512 1.8540322
3.9261754 5.9691701 1.8740693
3.9456449 6.0624008 1.8977363
3.8763459 6.9254203 1.9212518
3.9112277 7.0999155 1.8399928
3.8876061 7.2345328 1.9450096
3.8950701 7.5352278 1.8300176
3.8512464 7.6861072 1.8955978
3.8734541 7.8894148 1.8779955
3.8615866 8.0555973 1.9408612
3.8692958 8.2400465 1.8116722
3.8170209 9.4534855 1.838448
3.8249683 9.8668222 1.8602707
3.8304024 10.165735 1.8564038
3.9361076 10.306534 1.9441158
3.8829534 10.514431 1.9272641
3.8600256 10.610506 1.9105597
3.9455843 10.929708 1.8403103
3.8401558 13.940987 1.8036577
3.8485563 14.43985 1.8838336
3.9633369 15.349421 1.9025426
3.8610351 16.443655 1.9837213
3.8740845 17.339493 1.929585
3.9165354 18.086714 1.8971403
3.8469424 18.353577 1.9041048
3.8205907 18.442556 1.8372563
3.9034562 18.790371 1.8361235
3.871366 19.868282 1.9297075
3.9076352 20.220278 1.9354806
3.920891 20.472055 1.9132233
3.8619952 24.370052 1.9072025
3.8598497 34.819511 1.8642299
3.9945145 2.9404488 2.0309806
3.8112056 3.3830698 2.0237813
3.949162 3.7637939 2.025255
3.9609325 4.2202015 2.0347772
3.9330356 4.4174609 2.0593803
3.91011 4.6894155 2.0318933
3.9356291 4.9090109 2.0583115
3.8766418 5.0577755 2.01827
3.8792315 5.3285794 2.0694294
3.8352757 5.4898138 2.016468
3.9273312 5.7295761 2.0491815
3.9274302 5.907115 2.0526228
3.9525981 6.0265732 2.0665598
3.9099903 6.9524117 2.1590285
3.8713562 7.0783234 2.1128111
3.8654869 7.3697863 2.106667
3.8267386 7.6958113 2.1198487
3.867065 7.911798 2.0059638
3.8750806 8.0924482 2.0785246
3.8292828 8.555151 2.1720958
3.8501115 8.6413832 2.1745937
3.8603334 9.4707508 2.1780298
3.810461 9.8245564 2.0871408
3.8789148 10.172864 2.1435122
3.9038644 10.347317 2.0268574
3.9484768 10.478961 2.0447919
3.8991842 10.697643 2.0373232
3.8794742 10.865889 2.0872474
3.8266146 11.533442 2.0592
3.860199 13.880147 2.107116
3.9127381 14.487851 2.1978338
3.9574542 15.41102 2.1202905
3.8416753 16.388515 2.1273253
3.8204381 16.457218 2.1539319
3.9408147 17.171574 2.1309347
3.9416554 17.305521 2.1362543
3.982311 18.002617 2.1005831
3.8474751 18.252779 2.1132827
3.9558563 20.14386 2.0404916
3.918704 20.486469 2.1278324
3.8597317 20.661543 2.1308315
3.8464227 21.483963 2.1149354
3.9672227 24.18301 2.110795
3.8324533 24.345757 2.1477525
3.9021926 24.401199 2.0843995
3.8932776 30.266224 2.1619754
3.9791186 7.0061307 2.2113831
3.8468838 7.2310305 2.2307389
3.8007584 7.442894 2.2081475
3.8909175 8.2449017 2.2459464
3.824156 8.956686 2.2145386
3.9206417 9.4097176 2.2836971
3.9030707 9.69417 2.3282776
3.9622324 9.8959465 2.214499
3.9062374 10.276557 2.2321491
3.9141839 10.776309 2.2307076
3.8952315 13.929196 2.2415237
3.870939 14.552217 2.3276024
3.8947952 15.485081 2.2839584
3.9060616 17.279629 2.3100214
3.9835303 17.995928 2.2447879
3.8322654 18.11175 2.3353972
3.8678758 18.235453 2.3253713
3.8752742 19.877857 2.2332034
3.8370407 21.540714 2.2956297
3.8632426 21.812302 2.2747881
3.8335712 24.397652 2.3304513
3.948833 24.481174 2.2909949
3.8495495 30.245041 2.2790999
3.8712041 31.327732 2.2526836
3.93222 36.241047 2.3111334
3.916688 36.555443 2.3465466
3.8980496 37.109314 2.3064518
3.8457322 18.001944 2.5230367
3.8636563 20.003555 2.5054326
3.8022487 24.371313 2.4998665
3.8330355 24.502247 2.5215275
3.8894277 30.262356 2.5233459
3.9019935 31.333687 2.5742979
3.8432539 31.445244 2.418371
3.8814011 36.249107 2.5479822
3.858357 36.529617 2.4372339
3.8309515 36.608719 2.508687
3.8442647 37.141708 2.5507853
3.9883034 24.390701 2.6737792
3.9698591 30.11363 2.6177495
3.8821092 30.288727 2.6986821
3.9685805 31.296938 2.6532147
3.875659 35.875031 2.7216659
3.9051912 36.051147 2.7628145
3.9170778 36.273163 2.6896691
3.8457339 36.588531 2.7076421
3.82619 36.646183 2.6125212
3.8947597 18.545563 2.8292208
3.8241053 18.844002 2.8748012
3.8292189 24.426558 2.8182869
3.9415889 35.903084 2.8312879
3.862112 36.149273 2.8486791
3.9177642 36.286209 2.8873229
3.9754751 36.428127 2.9235334
3.9945254 37.156982 2.8676095
4.1012058 -4.3024764 -0.42066774
4.1274414 -3.2545567 -0.54573953
4.1767406 -3.0211287 -0.54092902
4.1228199 -2.8927693 -0.5406574
4.0117092 -2.7217159 -0.54147947
4.0114307 -2.4881825 -0.53847778
4.0689964 -4.0506659 -0.24866606
4.051496 -3.8746922 -0.2802918
4.1588564 -3.4929912 -0.23544946
4.1697464 -3.0777483 -0.22686461
4.0000567 2.96545 -0.23027818
4.0367723 -3.8706665 -0.18619981
4.1978059 -3.7336335 -0.10417074
4.0956192 -3.4905634 -0.074963495
4.1282277 -3.33918 -0.079748482
4.0158372 2.06792 -0.026155964
4.0492625 2.5485554 -0.067607626
4.1560493 2.7255669 -0.098579884
4.0813875 2.9135456 -0.095942058
4.1948452 3.2798235 -0.10335111
4.0276856 -3.6366 0.1760595
4.1007681 -3.5327828 0.069325
4.1525993 1.9011863 0.098670796
4.1324062 2.1570122 0.053034857
4.1128292 2.3040419 0.063463397
4.1034288 2.5408835 0.060567766
4.1339722 2.6254165 0.073280007
4.0894461 -8.8407021 0.26809573
4.1454086 -3.6798167 0.27568269
4.1125455 -3.5682993 0.25052679
4.0911741 1.8282241 0.23754174
4.1143522 2.0997777 0.23418808
