# .PCD v0.7 - Point Cloud Data file format
VERSION 0.7
FIELDS x y z
SIZE 4 4 4
TYPE F F F
COUNT 1 1 1
WIDTH 1563
HEIGHT 1
VIEWPOINT 0 0 0 1 0 0 0
POINTS 1563
DATA ascii
37.154579 16.686142 0.25819156
37.150871 16.921028 0.27937341
37.129173 17.311974 0.26161823
37.099457 20.776974 0.26933551
37.100147 20.881599 0.23289046
37.008339 21.755907 0.32973871
37.060879 26.681831 0.3814474
37.086784 26.907019 0.30433562
37.054966 29.784784 0.25225601
37.065239 30.375246 0.24530579
37.098747 33.209278 0.22338867
37.103409 34.823059 0.27514631
37.180176 55.481495 0.25519407
37.115505 -7.831831 0.50392532
37.148476 -2.4309158 0.54756975
37.167812 -0.97474289 0.59887564
37.075378 -0.78788376 0.53630501
37.119621 -0.25099897 0.55544209
37.115768 0.2491951 0.58966738
37.192223 0.87125206 0.51588154
37.080341 1.3305264 0.58601928
37.053547 1.7954102 0.52220416
37.011036 3.7058883 0.55116338
37.16008 4.5266542 0.4348186
37.133781 4.6574211 0.56191456
37.119591 4.8568048 0.51420897
37.130863 5.0478044 0.50090384
37.140678 5.3725548 0.54780227
37.119694 5.6922951 0.40346768
37.103168 5.8614674 0.59627485
37.126068 6.4077511 0.59561861
37.194099 6.8185906 0.51817727
37.142387 15.928808 0.49442798
37.126442 16.117065 0.57533014
37.12851 16.519619 0.50290543
37.104374 16.648186 0.58202493
37.150352 16.926365 0.46922261
37.196957 17.073551 0.41046235
37.00267 20.863789 0.46340299
37.0513 21.30986 0.50452173
37.085709 26.92321 0.57160145
37.075829 29.100706 0.51173043
37.052128 29.357483 0.58133012
37.169895 30.445475 0.46985817
37.09082 30.625851 0.57416379
37.052197 31.952991 0.46272209
37.128059 33.318352 0.45733145
37.083176 34.908241 0.44759527
37.179916 -4.3682499 0.70155013
37.120075 -2.9248371 0.68831897
37.187325 -2.2194538 0.68201667
37.173859 4.1248856 0.73916817
37.172653 4.3058367 0.7239722
37.074883 4.7522373 0.62543017
37.126442 4.8475633 0.66600239
37.122101 5.0661974 0.69615316
37.155125 5.4989419 0.6370759
37.066319 5.8289909 0.71144736
37.118198 6.1156988 0.7663728
37.082561 6.2551508 0.65864587
37.092888 6.7083378 0.72842586
37.033775 7.046526 0.67466718
37.073551 7.3378496 0.78567588
37.066944 7.4812517 0.65943837
37.007797 7.6185513 0.77948904
37.06609 7.8547559 0.71208793
37.036232 8.2752609 0.65430433
37.062225 8.5625658 0.65981674
37.040184 8.7010889 0.69465888
37.048592 8.8386927 0.6564185
37.024147 9.1540623 0.70857942
37.042423 9.3207817 0.65457428
37.069084 9.6223707 0.62758327
37.094711 13.30682 0.70850122
37.036423 20.781635 0.61809206
37.155357 26.829834 0.75081176
37.081081 27.014977 0.74347162
37.06163 28.132746 0.72907424
37.055042 29.783869 0.69982791
37.094975 30.734768 0.7802738
37.140827 30.920713 0.79406261
37.043827 31.307615 0.74295932
37.148224 31.44191 0.7318927
37.189247 32.346519 0.73361313
37.165642 33.378334 0.64174747
37.191551 33.94709 0.63752216
37.168098 34.133881 0.64685422
37.102642 34.740932 0.61108142
37.165691 49.188347 0.75775015
37.050949 55.424065 0.61944538
37.005672 -7.7604914 0.99568892
37.085423 -7.5587978 0.99729872
37.170818 -2.8119926 0.92255163
37.073566 -0.66991043 0.89313936
37.041702 1.1704941 0.86935866
37.098488 3.7529426 0.93969548
37.181942 4.2553215 0.98584408
37.192833 5.3302827 0.91289175
37.185066 5.6555629 0.88933754
37.143669 5.8744016 0.97410631
37.165718 6.0940342 0.94471449
37.167095 6.2919736 0.97926211
37.179031 6.4339824 0.98399538
37.043495 7.5558729 0.91805398
37.112297 13.191017 0.90643466
37.029495 13.299116 0.92272496
37.143578 16.521761 0.88981295
37.13599 16.808168 0.90698969
37.079277 20.85696 0.84940183
37.096149 21.260656 0.83158708
37.073624 26.891239 0.86777544
37.010551 27.382082 0.92334723
37.167927 27.691822 0.95981318
37.01725 28.137047 0.90428293
37.167713 28.320719 0.92821789
37.076591 29.352333 0.92231303
37.147865 55.470108 0.8627274
37.148148 -7.8550453 1.082502
37.012547 1.8055897 1.0181835
37.185509 3.5419083 1.0703311
37.173058 4.2094316 1.0491726
37.116955 4.6377735 1.0437598
37.126842 5.0302925 1.0620915
37.133022 5.4530468 1.0519601
37.0961 6.1839347 1.0307863
37.097115 6.3948517 1.0258176
37.071823 6.6035767 1.05512
37.19434 6.8124318 1.0953095
37.042122 7.0650992 1.0689716
37.029308 7.4976172 1.0944993
37.016495 7.8714023 1.0658009
37.02285 8.2788143 1.0636826
37.016609 8.5334854 1.1101127
37.000854 8.6413937 1.0976955
37.004669 9.1289959 1.1324174
37.051739 13.105442 1.0218121
37.191826 13.345755 1.0783474
37.188747 20.757608 1.0089033
37.038937 20.912701 1.1419713
37.076302 21.255983 1.1512607
37.00552 21.890038 1.1668494
37.154846 29.784197 1.036644
37.160202 30.819012 1.0002782
37.004807 55.625839 1.0967321
37.176117 3.5418861 1.3546542
37.177902 3.7204313 1.3153691
37.197987 3.8439684 1.3701494
37.082584 4.1396637 1.3012292
37.108562 5.1168981 1.2561895
37.09137 5.8387966 1.3125117
37.074295 6.1394234 1.2339656
37.048523 6.7678366 1.2837902
37.035397 7.257165 1.3001276
37.097931 7.8967562 1.2390423
37.044464 12.973172 1.2507633
37.057869 13.132281 1.2478893
37.008728 13.239083 1.3575795
37.041039 20.660988 1.3993003
37.012684 21.157299 1.2151453
37.090523 21.266594 1.2770568
37.181908 3.5841589 1.4143099
37.148178 4.1782808 1.4098104
37.183643 4.3258452 1.4399428
37.189213 4.4784155 1.5327777
37.151169 4.6420183 1.4685793
37.186882 4.8681002 1.5199599
37.158127 5.0600314 1.46874
37.15181 5.3181643 1.5141907
37.150192 5.471158 1.4927092
37.126244 5.6698227 1.5337924
37.148846 5.9001637 1.5533304
37.116508 6.1478133 1.4710424
37.075699 6.2765284 1.4901572
37.148556 6.5310063 1.5845153
37.096573 6.6321621 1.5100632
37.010433 6.8192692 1.5136151
37.037262 7.051496 1.4213259
37.031284 7.3338928 1.49656
37.030056 7.440074 1.4450631
37.037033 7.92941 1.5129346
37.017635 8.3215723 1.5440933
37.034851 8.8678999 1.5744017
37.027412 9.1682377 1.5701315
37.008438 9.6878309 1.5617138
37.02697 12.997581 1.4253862
37.168854 20.690166 1.4165515
37.057301 20.853909 1.4838142
37.041893 21.24288 1.5048932
37.143826 29.147108 1.5941782
37.159203 29.819624 1.4274997
37.090347 4.1576157 1.679702
37.12006 4.8424053 1.641028
37.109135 5.2478137 1.6097593
37.066956 6.7786083 1.6973739
37.100327 7.1338749 1.6156111
37.121914 13.341593 1.6926734
37.049187 21.233824 1.6825842
37.36655 -7.7318554 0.014369085
37.392136 -5.9118977 0.10230234
37.377525 -5.3876724 0.11039025
37.354111 -4.8547516 0.11859596
37.396202 -4.5727024 0.12296513
37.330029 -4.3420277 0.12646598
37.394207 -4.084034 0.13046721
37.329243 -3.8634262 0.13381377
37.370792 -3.611227 0.13769346
37.341309 -2.9752173 0.081497639
37.356594 -2.2847643 0.12663403
37.375313 -2.0636897 0.02442015
37.306988 -1.933815 0.16319931
37.271309 -1.1982517 0.15461476
37.267906 -0.84949303 0.17955223
37.248447 -0.67390251 0.15958458
37.310722 -0.56342983 0.075040966
37.225277 -0.16971588 0.16434458
37.336224 0.1883831 0.018837526
37.22934 0.35735559 0.18354955
37.200687 0.77453613 0.17331043
37.398979 0.96047783 0.15926014
37.372269 1.3620563 0.15058517
37.38102 1.596748 0.14778598
37.27224 1.9291396 0.12847647
37.358139 2.0737569 0.10463463
37.294815 3.5208514 0.11331545
37.273544 3.6891544 0.12335268
37.270271 3.903291 0.10480478
37.252365 4.1728034 9.11057e-05
37.269081 4.2068181 0.14535174
37.289303 13.159833 0.17139205
37.313229 26.761349 0.15161198
37.260647 26.887486 0.10382041
37.288216 27.688595 0.052688643
37.391972 29.363337 0.12374151
37.333057 32.02198 0.1829267
37.372204 34.688744 0.085117713
37.381275 48.937328 0.067622028
37.336571 49.233635 0.080257654
37.289215 49.510849 0.08120507
37.349228 49.667324 0.11230476
37.225887 -7.8409195 0.3803415
37.368561 0.18022442 0.37695795
37.398842 0.85614634 0.30976433
37.394207 1.1671317 0.30916691
37.207329 1.2894344 0.30002597
37.328724 1.9347627 0.30037677
37.365379 2.0961108 0.29181993
37.288017 3.5306282 0.30009952
37.256912 3.6632638 0.26845905
37.315346 3.9281974 0.36387342
37.237747 4.1078033 0.29955181
37.223854 4.322753 0.38682187
37.211918 4.5006447 0.26618308
37.205956 4.8299465 0.37871337
37.388111 13.248279 0.33519855
37.286018 15.71311 0.27682674
37.314049 15.877518 0.2496431
37.277821 16.241776 0.22968155
37.383308 16.67968 0.20504338
37.266495 16.968395 0.30848563
37.354462 17.049534 0.21813643
37.302307 26.890926 0.26317799
37.282864 29.167671 0.26943463
37.220791 33.268856 0.39837697
37.352123 48.761379 0.37369812
37.340172 49.417618 0.3713479
37.313801 49.651291 0.20641361
37.339462 55.539822 0.36826172
37.305084 55.659065 0.29052863
37.373207 -7.7509551 0.52693814
37.316929 -6.8372803 0.57038343
37.356022 -0.2159977 0.44476473
37.398609 1.5648751 0.53765869
37.393761 1.7811967 0.53193426
37.300217 1.9339721 0.47067142
37.380531 2.0801692 0.5078851
37.234509 3.4936767 0.47210738
37.33596 3.718658 0.45433378
37.250443 3.930006 0.57800883
37.229424 4.2036619 0.5684067
37.206947 4.5783958 0.47087526
37.20433 4.7624903 0.53717721
37.382332 13.132177 0.44445199
37.29388 13.334577 0.53094512
37.300011 15.706186 0.51960826
37.340973 15.842173 0.48365188
37.227932 16.002861 0.46480468
37.254261 16.909121 0.48868078
37.219639 17.023859 0.49821711
37.239426 29.147795 0.51185966
37.386082 29.365917 0.57389265
37.34449 31.795719 0.59391403
37.276375 31.988506 0.56785864
37.334877 32.103889 0.52873814
37.250626 34.849541 0.46609831
37.393723 -6.7783947 0.7238192
37.38118 -4.2408285 0.63130063
37.334602 1.8831358 0.65329862
37.356842 2.0925965 0.68941331
37.255592 3.5038242 0.68624008
37.372974 3.6045895 0.63395107
37.251431 3.882864 0.6696713
37.21698 4.067358 0.76455772
37.2216 4.5691719 0.70559692
37.370987 15.728249 0.7340498
37.326195 15.889867 0.70640522
37.319916 16.046412 0.74713123
37.30687 16.255871 0.70975125
37.3139 16.522678 0.76128352
37.30378 16.713356 0.70143938
37.250404 16.837986 0.69465828
37.293335 17.013817 0.79820275
37.295734 17.460112 0.66401154
37.279789 21.390818 0.75103295
37.28653 26.888142 0.67019928
37.252041 28.314827 0.73895258
37.239105 30.768291 0.70541066
37.205162 31.483526 0.717803
37.292564 33.312775 0.64876562
37.35009 33.480263 0.64007998
37.267723 33.775921 0.66558504
37.312122 34.732624 0.633277
37.358765 49.234524 0.67898226
37.33989 49.509445 0.70274049
37.338821 55.648643 0.64604247
37.231846 -7.8659468 0.88634139
37.39502 -7.7565141 0.98235512
37.370697 1.3620573 0.87719619
37.317413 1.5548134 0.82520092
37.37397 1.7205493 0.94078517
37.350414 1.8891588 0.87797213
37.339195 2.0903597 0.88738102
37.266346 3.4788272 0.94924462
37.236458 3.6401415 0.93690455
37.267616 3.9001708 0.93090779
37.259438 4.0999022 0.88061833
37.225601 4.3567791 0.88782126
37.2262 4.524878 0.96283412
37.226475 4.6598778 0.92030007
37.216122 4.8931351 0.93643248
37.21122 5.4483852 0.97568363
37.212234 5.8717389 0.97656494
37.27137 13.331684 0.9364742
37.329773 15.908731 0.83114374
37.328773 16.175701 0.87695563
37.316742 16.494083 0.92888182
37.236496 16.693361 0.87025607
37.362331 17.179787 0.80381763
37.31321 26.941166 0.88045603
37.247414 27.586365 0.96893704
37.244724 27.921482 0.96371371
37.347687 -7.7088084 1.1183699
37.395302 0.97996998 1.0770098
37.3955 1.3571817 1.051671
37.344151 1.7066174 1.0677655
37.260216 1.8751494 1.1007806
37.357635 2.0729232 1.0499561
37.232071 3.3868449 1.0847505
37.306614 3.5626843 1.0558802
37.278133 3.7074411 1.0306816
37.247528 3.8639982 1.0663123
37.251564 4.0818539 1.0060586
37.23167 4.337224 1.0642494
37.215424 5.6241846 1.0313724
37.371483 6.3460503 1.0779525
37.200005 7.0039062 1.0624717
37.336681 7.6811943 1.0506004
37.272404 8.8964996 1.0253209
37.340942 13.15067 1.0398648
37.399818 13.268234 1.0313714
37.203571 20.740583 1.0099747
37.365799 30.78805 1.0164512
37.358685 55.50338 1.0145496
37.3969 -7.5899248 1.3036335
37.360874 -0.81373215 1.2885764
37.329376 0.12108994 1.2404354
37.318878 1.2929764 1.3742135
37.344326 1.4775279 1.3709066
37.288994 1.6130686 1.3453821
37.30645 1.9357197 1.3042467
37.302361 2.0880327 1.285924
37.330551 3.5288374 1.2571496
37.248154 3.6743193 1.3476033
37.240215 4.3955622 1.2744704
37.243732 7.0556793 1.3777615
37.203629 7.7996807 1.3477237
37.37986 13.193724 1.3374054
37.366856 13.250423 1.3224465
37.292625 29.171429 1.3148463
37.326191 29.352112 1.3717233
37.266476 29.825336 1.2697936
37.37706 55.47625 1.3456583
37.372765 -7.7292905 1.5254054
37.373451 -0.71018505 1.596024
37.280052 -0.38466835 1.5800688
37.345329 -0.11452293 1.5662401
37.277691 0.10484314 1.5519854
37.322266 0.35905457 1.5385885
37.318069 0.81851196 1.5122695
37.378212 1.3925743 1.5203677
37.343292 1.4735398 1.4774733
37.385612 1.6208651 1.5364211
37.282936 1.9055169 1.4702615
37.306408 2.0544548 1.4167747
37.321285 3.5125151 1.4637871
37.269352 3.697252 1.5075686
37.232777 3.9495597 1.4956006
37.243568 4.1498537 1.5382214
37.228874 4.2525988 1.5166032
37.227005 4.5279255 1.54895
37.208878 4.6657252 1.5069801
37.209343 4.9138455 1.4800379
37.242802 5.4644995 1.5290709
37.201313 5.8383713 1.4264936
37.256824 6.2747459 1.4091985
37.211418 6.4261703 1.497281
37.39312 13.262614 1.4064187
37.391376 55.685936 1.5445787
37.389923 -1.7468052 1.69575
37.383068 -1.1661129 1.6274322
37.307018 -0.90759087 1.610724
37.369545 1.0013161 1.6944814
37.300919 1.9032815 1.6373963
37.275192 3.9177346 1.6755545
37.247803 4.0966244 1.6104605
37.232571 4.5632105 1.6268752
37.400311 -7.7109356 0.11484985
37.470921 -7.3225169 0.069322661
37.472328 -7.0908718 0.046136908
37.503265 -6.6264553 0.0842636
37.589329 -6.5021553 0.038779393
37.458073 -6.3257422 0.079275221
37.538769 -6.055975 0.011366412
37.442043 -5.896369 0.194775
37.446213 -5.6384029 0.10658091
37.460392 -5.4856243 0.15485089
37.465256 -5.0851874 0.12042864
37.504429 -4.6942816 0.12883243
37.481514 -4.2391014 0.14475377
37.482376 -3.7825608 0.1381031
37.423637 -3.3964171 0.12405038
37.443592 -3.0181007 0.1274752
37.466457 -2.6387339 0.07614249
37.438042 -1.8179188 0.15726829
37.593571 -1.6121542 0.14796028
37.464413 -1.4112428 0.12747325
37.496986 -1.0101103 0.17938879
37.48539 -0.60668886 0.18696272
37.464081 -0.2199071 0.18473767
37.451042 0.15179875 0.17679873
37.429756 0.57359272 0.17235541
37.428837 0.60107565 0.16584434
37.417305 0.92558169 0.17066845
37.548973 1.9462571 0.095377058
37.436802 2.3566761 0.0031636357
37.461586 2.4105968 0.15315479
37.443069 13.13696 0.10309075
37.430359 16.641125 0.17525986
37.476574 17.113613 0.1156244
37.596828 26.960464 0.16517802
37.449497 27.275864 0.11757823
37.56926 33.153053 0.15030232
37.481358 33.240517 0.18533283
37.500706 34.813339 0.11635637
37.549839 48.257275 0.010446057
37.46582 48.53476 0.12302002
37.542854 48.729752 0.14086206
37.458248 49.387047 0.12152161
37.55674 49.591908 0.14374483
37.454716 49.929955 0.10719532
37.574081 -3.9890184 0.3447949
37.584961 -2.1491141 0.39150989
37.575878 -1.4728421 0.2061864
37.523628 -1.331516 0.26116067
37.479141 -0.91905165 0.31534874
37.598091 -0.67181826 0.25567549
37.460037 -0.56883585 0.2753368
37.598118 -0.37981611 0.20656385
37.562183 0.073621035 0.32578462
37.415344 0.38921094 0.31094286
37.44463 0.5008325 0.38461024
37.44817 1.3898946 0.28384578
37.483902 1.4226881 0.25360608
37.474781 1.9105978 0.27704716
37.446758 2.0637479 0.29165572
37.474571 2.3957214 0.38079625
37.47913 13.211207 0.27572498
37.469376 15.669315 0.26456958
37.572308 16.131428 0.22151646
37.474297 17.223244 0.20809424
37.51709 17.717922 0.26502144
37.405205 26.799475 0.32433847
37.547531 29.82408 0.26991704
37.573906 31.863388 0.24871206
37.470108 32.405548 0.26602855
37.493599 33.312588 0.21660022
37.497841 34.850662 0.28680867
37.570229 48.367661 0.24408665
37.54372 48.445206 0.32550555
37.521133 48.664055 0.26069173
37.507301 48.974228 0.28444627
37.485992 49.499126 0.28018761
37.510971 49.700893 0.31102601
37.531975 49.849335 0.33520591
37.477074 -7.6802659 0.46178493
37.550404 -4.8654146 0.48399794
37.510544 -3.4395528 0.52595365
37.504005 -3.0536127 0.54310334
37.453293 -2.5815167 0.56224346
37.513268 -2.2496223 0.57453269
37.480991 -2.1301584 0.46113774
37.443634 -1.758121 0.54279256
37.481422 -1.4529536 0.56323636
37.51123 -1.0038025 0.58266091
37.474068 -0.86466944 0.49585298
37.547989 -0.71250236 0.49919567
37.509857 -0.5978986 0.58006889
37.49073 -0.21413764 0.55421317
37.535526 -0.052651804 0.49573413
37.480217 0.17976825 0.55810893
37.519108 0.56762803 0.4005034
37.548779 0.75701535 0.44302297
37.450539 0.92627227 0.53611636
37.441185 1.1334686 0.53571433
37.411972 1.3463652 0.53736043
37.455833 1.4940026 0.45939362
37.404488 1.6474712 0.53249204
37.47567 1.9105077 0.5133087
37.427048 2.0836353 0.49125573
37.500771 13.098001 0.51972556
37.51123 13.249573 0.56827748
37.401714 27.021688 0.50936645
37.482544 30.586117 0.594675
37.493824 33.321777 0.47723657
37.482357 34.867584 0.5116275
37.407845 48.35611 0.55521345
37.590405 48.524391 0.48871845
37.545502 49.723797 0.56089145
37.492645 49.815117 0.548455
37.573803 -6.6993179 0.76111102
37.559422 -5.9011688 0.7124896
37.400261 -5.797636 0.73208195
37.509338 -5.4694562 0.71510243
37.412003 -5.1042542 0.61046702
37.495537 -4.6538777 0.64966452
37.470959 -3.8680971 0.67368639
37.486423 -3.2601261 0.77936566
37.565285 -3.0186286 0.74870563
37.518753 -2.5989971 0.76776505
37.561367 -2.3998151 0.7203548
37.454063 -1.0576773 0.73932612
37.598457 -0.67081237 0.74287343
37.566856 -0.41537833 0.74021041
37.572502 -0.27099103 0.7179718
37.551605 0.30339754 0.75164539
37.542946 0.5562557 0.7358098
37.483871 0.63296741 0.6715436
37.479416 0.94690681 0.67511356
37.515091 1.1714349 0.75227791
37.454689 1.3068974 0.66774541
37.476654 1.9503424 0.69054019
37.463364 2.0333228 0.71891129
37.418488 2.3945212 0.60436535
37.499489 2.4295802 0.72657967
37.41478 3.6046238 0.7820701
37.47612 13.27615 0.75451672
37.447113 15.623655 0.76579416
37.445858 16.078545 0.72923386
37.451263 16.994297 0.71115512
37.459511 17.098129 0.70223916
37.528992 29.808594 0.71190578
37.446369 30.609795 0.71326566
37.457336 31.746859 0.7356962
37.538662 33.504959 0.70499945
37.541794 48.721466 0.61408877
37.42136 48.93647 0.65922761
37.525864 49.050552 0.6974498
37.524399 49.380798 0.60576713
37.580688 49.554451 0.61520267
37.521912 55.515236 0.61763656
37.41172 -7.7631054 0.82927811
37.59293 -7.5091858 0.87579584
37.555458 -6.7077494 0.8405301
37.580555 -6.3445253 0.8252545
37.573032 -5.9222565 0.80698472
37.57328 -5.2167645 0.81578392
37.546959 -4.682323 0.93913513
37.518143 -4.1450024 0.96916223
37.478928 -3.2489557 0.93142015
37.532265 -2.5992756 0.98197126
37.524254 -2.2303021 0.95006514
37.568829 -2.1451912 0.981866
37.542969 -1.8324914 0.97779864
37.536034 -1.7034073 0.93546426
37.450329 -1.4834201 0.92553973
37.465973 -1.3531796 0.91295928
37.528114 -1.0702108 0.93926573
37.530525 -0.93704629 0.88680661
37.449097 -0.7025094 0.91927361
37.494476 -0.5221312 0.92715055
37.565567 -0.13389528 0.92459041
37.45018 0.12583326 0.94698918
37.420334 0.30255949 0.89311618
37.430664 0.48951313 0.90638429
37.466888 0.7386508 0.90306675
37.404041 0.89894426 0.87817317
37.405899 1.0830905 0.90743876
37.4039 1.42497 0.94851112
37.444168 1.6190759 0.98633075
37.424736 1.8586646 0.99004781
37.440956 2.0614259 0.94117355
37.47794 2.3593879 0.99886882
37.52327 13.278472 0.90169561
37.43494 15.7819 0.8066361
37.449951 15.864265 0.80995613
37.47628 16.580738 0.8570742
37.581573 16.728836 0.97066116
37.599327 16.895325 0.96608114
37.404018 17.126778 0.83156002
37.445915 26.971863 0.85507452
37.422424 27.396585 0.98841625
37.445694 29.371914 0.8851769
37.592384 49.023865 0.80344582
37.582054 49.417049 0.8817724
37.498188 55.499466 0.84778833
37.579464 -7.8298397 1.1243335
37.591747 -7.4123821 1.107005
37.549557 -6.8848572 1.083957
37.584648 -6.646287 1.0746841
37.565708 -6.4072609 1.0642712
37.523361 -6.0918245 1.0501597
37.571999 -5.8687515 1.0418909
37.526764 -5.5099955 1.0259454
37.561615 -5.0373812 1.0744729
37.532951 -4.3658471 1.0557253
37.555286 -3.8250864 1.0531971
37.514568 -3.4127274 1.0136843
37.56871 -3.0308337 1.0267961
37.514065 -1.7910423 1.0078641
37.548916 -1.2772133 1.0447605
37.526344 -0.29571739 1.0703638
37.437195 0.57093751 1.090955
37.54755 0.80290812 1.0407579
37.463802 1.5182986 1.0599267
37.480042 1.9600723 1.1129538
37.424515 2.0325644 1.0737352
37.598103 13.127695 1.1372999
37.545303 13.253898 1.1756992
37.531265 15.890756 1.0148147
37.598209 29.381674 1.1754806
37.440445 29.802744 1.040337
37.432701 55.628601 1.0025089
37.460529 -7.7834263 1.3213151
37.599724 -5.5971794 1.382252
37.552994 -3.8564997 1.3870816
37.546478 -3.4607649 1.3796234
37.463882 -2.6773882 1.3569181
37.474266 -2.2490149 1.2967829
37.499802 -1.3734266 1.393966
37.481163 -1.0059797 1.3528361
37.54002 -0.68280876 1.230617
37.490944 -0.58415407 1.3231515
37.58979 -0.31918812 1.2274466
37.521896 -0.182473 1.2929747
37.55526 0.29395306 1.2209659
37.554359 0.76149833 1.3700289
37.502342 0.93900776 1.2287507
37.506195 1.1391995 1.2085795
37.510727 1.3969895 1.3667662
37.530983 1.5667058 1.2978494
37.500126 1.9013867 1.3198984
37.433006 2.035598 1.3039525
37.493313 2.330924 1.2423124
37.446175 3.4859376 1.3515379
37.494053 13.194199 1.3256724
37.53891 29.178402 1.2991176
37.47963 29.304565 1.3631959
37.557159 29.565823 1.3531651
37.524506 29.613527 1.3590533
37.566605 -6.6256027 1.5924041
37.57394 -6.1634636 1.568511
37.546562 -5.8852634 1.4855793
37.550388 -5.6106815 1.5393527
37.477791 -5.3510437 1.5244591
37.556454 -5.0454702 1.5205392
37.451752 -4.8189068 1.4963522
37.568016 -4.6201606 1.5273428
37.51672 -4.5506706 1.4837706
37.505623 -4.2746239 1.4935737
37.488018 -4.048912 1.4572546
37.468132 -3.5959301 1.4334707
37.40078 -3.3763828 1.4207531
37.538471 -3.1055379 1.5047309
37.540501 -2.3802094 1.5549192
37.58144 -2.1466141 1.5753012
37.545036 -1.7993193 1.5492177
37.552383 -1.2884004 1.5044366
37.491264 -1.0884526 1.4552234
37.489349 -0.91697419 1.539652
37.49884 -0.62727433 1.5392704
37.506317 -0.51298702 1.5122402
37.405605 -0.31002879 1.4416174
37.47319 0.15794632 1.4928675
37.416031 0.39124131 1.5247276
37.485603 0.57633901 1.4378575
37.446495 0.64697671 1.5338459
37.437305 0.93145633 1.4960762
37.415672 1.1243221 1.5473917
37.451569 1.4792072 1.4473592
37.405293 1.603641 1.5542459
37.501019 1.9063737 1.4899061
37.481796 2.0822752 1.4836342
37.508949 13.252127 1.5220559
37.554195 29.550211 1.4933335
37.567039 29.73455 1.413797
37.542709 -7.1325207 1.6183579
37.5522 -5.1888142 1.6188073
37.562092 -2.1724486 1.6890209
37.593517 -1.9308575 1.6621053
37.534775 -1.3371766 1.6991262
37.550995 -1.0821962 1.6969833
37.545425 -0.68461609 1.6843398
37.520016 -0.046009284 1.6465958
37.442482 1.4406557 1.6783608
37.501045 1.9342697 1.6526284
37.446938 2.1071801 1.6985854
37.42807 29.023247 1.6685405
37.657944 -7.7013555 0.020196483
37.683811 -7.2095518 0.036936566
37.654877 -6.6513619 0.19467378
37.646515 -6.2827826 0.19230698
37.619789 -5.8335724 0.1391931
37.60236 -5.7663546 0.039958179
37.643753 -5.4358501 0.184333
37.654999 -3.7966371 0.13974375
37.643044 -3.3930101 0.11820582
37.737862 -3.1660361 0.0084220171
37.644489 0.60487366 0.17347012
37.64098 1.7021294 0.18399626
37.634666 1.8081269 0.13100871
37.663067 2.4586492 0.1504018
37.640717 13.085342 0.03545779
37.759548 16.16954 0.19884557
37.774944 16.562391 0.12587637
37.768002 17.085419 0.11220345
37.778877 17.286633 0.10658672
37.756157 26.885622 0.043291956
37.707981 32.010433 0.10729413
37.698227 33.22472 0.16298686
37.664772 34.712589 0.10548598
37.729897 34.859619 0.11294729
37.615028 48.140549 0.14764825
37.7892 48.491673 0.15194163
37.680923 -7.8106499 0.38220236
37.708 -7.6511683 0.31053305
37.688465 -7.4334273 0.20101851
37.666939 -7.0691395 0.20223165
37.669411 -6.8018045 0.37226695
37.621155 -6.6586418 0.38211182
37.73336 -6.4981847 0.28756106
37.633396 -5.9210796 0.36353314
37.675247 -5.0673599 0.36454564
37.677757 -4.6490941 0.27083921
37.659019 -4.2194357 0.2633813
37.654823 -3.3506143 0.22960429
37.60421 -3.0289488 0.29757655
37.652817 -2.9989595 0.21859585
37.659401 -2.580821 0.31469056
37.652122 -2.2382116 0.31950217
37.648369 -1.8270695 0.28664052
37.644539 -1.501416 0.25784242
37.62669 -1.359911 0.35013616
37.61113 -1.1531041 0.22978139
37.610367 -0.98848724 0.27201885
37.605606 -0.6183098 0.20539232
37.618912 0.81150818 0.2409327
37.623707 2.4438915 0.3469196
37.74482 15.614709 0.28666556
37.695198 17.043369 0.21697129
37.780083 26.888046 0.25703442
37.619438 31.980825 0.24797693
37.63435 34.782173 0.21678978
37.772751 34.86087 0.2717973
37.670998 48.36351 0.30003297
37.611073 49.697746 0.27460694
37.700161 49.857758 0.33703095
37.751953 55.520496 0.26719725
37.710289 55.672501 0.29627544
37.686031 -7.7384729 0.47495353
37.74419 -7.5304279 0.50599515
37.722588 -7.1026697 0.53514493
37.657066 -6.6936302 0.51332444
37.708549 -6.4269962 0.4323498
37.695641 -6.2797875 0.51782435
37.602646 -5.9491148 0.49354178
37.675556 -5.4709363 0.59014231
37.701065 -4.6016798 0.50729537
37.710579 -4.166893 0.56047344
37.634995 -3.890415 0.55909294
37.741302 -3.1894135 0.4293524
37.655205 -1.43251 0.45165664
37.61879 -1.1375296 0.57268327
37.602917 -0.71253628 0.59603107
37.655731 0.60698342 0.53400576
37.779934 1.7687345 0.43724251
37.600544 1.8856306 0.53532773
37.73851 13.088394 0.4349651
37.717583 17.06905 0.44638377
37.608944 29.441067 0.59458911
37.646786 29.799656 0.59552306
37.775536 31.987049 0.4692252
37.732491 33.354473 0.40674865
37.721863 34.853115 0.5017283
37.657856 48.542652 0.57910907
37.744865 49.914787 0.58190626
37.728348 -6.5804925 0.66553175
37.699314 -5.8350391 0.6370514
37.714302 -4.9025631 0.65900218
37.652954 -3.3519514 0.64322865
37.67131 -3.0255575 0.75015366
37.695511 -2.6942179 0.76610291
37.657875 -2.5513759 0.7123791
37.663845 -2.3308628 0.76040781
37.640984 -2.1629844 0.72279668
37.64418 -1.8302711 0.72962582
37.615364 -1.494617 0.74984372
37.624405 -1.3227654 0.69122863
37.604557 -1.1369302 0.74636567
37.619572 -0.98551559 0.76247537
37.606834 0.72151124 0.70397854
37.694889 1.7970066 0.74112189
37.685783 1.8286886 0.69094676
37.632988 2.4549932 0.70195103
37.736866 13.115252 0.60116249
37.739693 29.397617 0.60805398
37.644585 33.282513 0.66922134
37.771805 34.754757 0.70358193
37.673626 48.370609 0.63781404
37.682961 48.555767 0.69561118
37.671764 48.611183 0.73612797
37.705765 48.838711 0.77963996
37.615356 49.062092 0.76733243
37.620407 49.399078 0.74566793
37.655109 49.501183 0.78348398
37.757782 49.721775 0.70199251
37.624542 49.856174 0.69393712
37.723061 55.460777 0.6533168
37.601204 -7.8495789 0.89070964
37.649078 -7.7648296 0.82592309
37.753994 -7.518671 0.91313475
37.71347 -7.0825958 0.95602286
37.707413 -6.6676397 0.96780437
37.651897 -6.5636024 0.83272308
37.68005 -6.2281561 0.92655796
37.675488 -6.0294056 0.83162379
37.602703 -5.7694607 0.82614696
37.647629 -5.4762573 0.82126921
37.673943 -5.0584579 0.90280092
37.638031 -4.93783 0.81138492
37.672924 -4.6298494 0.93738079
37.608402 -4.425211 0.80176759
37.662392 -4.2280726 0.9215163
37.653084 -3.8546896 0.98626763
37.640617 -3.4540472 0.9756996
37.731106 -3.2072711 0.8507942
37.63662 -2.2664366 0.90568435
37.625458 -1.9646307 0.89307338
37.621124 -1.6460745 0.91580248
37.607471 -1.5233063 0.85320139
37.631393 -1.0576551 0.95350164
37.613483 -0.69661772 0.96494138
37.617779 -0.56952035 0.96539605
37.625759 0.63576555 0.98343503
37.657806 2.3833303 0.9482888
37.632797 15.750484 0.87206078
37.758194 16.980959 0.94062883
37.680977 17.046471 0.96830106
37.732941 29.416744 0.82500637
37.646965 29.854786 0.83157676
37.76284 48.687359 0.87676358
37.737312 48.991417 0.94948375
37.656773 49.082199 0.8941943
37.653595 49.421486 0.95354509
37.714787 49.726547 0.89144588
37.781509 55.531403 0.91712207
37.787201 -7.7467046 1.1193188
37.63522 -6.621501 1.1318153
37.764492 -6.5096726 1.0388641
37.6819 -5.8586016 1.1012635
37.662601 -5.3032522 1.051903
37.655472 -3.3375204 1.1196008
37.611431 -3.0183253 1.149268
37.670441 -2.9837084 1.1099023
37.658707 -2.6554661 1.1047852
37.666321 -2.5269551 1.1907775
37.64299 -2.2527122 1.0789375
37.62344 -2.097672 1.1893916
37.630661 -1.8302243 1.1165454
37.658009 -1.7508149 1.0366589
37.620071 -1.4346666 1.0842192
37.61504 -1.3287574 1.1909034
37.611202 -1.1712439 1.0355172
37.621025 0.81950378 1.1473167
37.730114 1.8270141 1.0333143
37.654121 2.4212687 1.1366827
37.72924 13.146671 1.0336227
37.738708 16.515331 1.0487015
37.728729 16.822659 1.0350444
37.664639 27.208607 1.0144471
37.677872 29.810749 1.0740721
37.783562 49.708755 1.0031618
37.73764 55.523911 1.044848
37.774349 55.696045 1.0564144
37.739391 -7.7753105 1.3197801
37.7743 -7.5882664 1.3234986
37.788429 -7.0661526 1.3047444
37.781818 -6.8647256 1.2415388
37.685097 -6.6423273 1.3013382
37.69529 -6.500782 1.2295889
37.753922 -6.2782164 1.2966754
37.738243 -6.1366491 1.3784064
37.69289 -5.3987384 1.3018014
37.702232 -5.0008001 1.3978199
37.680534 -4.6498766 1.3873194
37.684937 -4.244607 1.3562083
37.709206 -3.842236 1.2977183
37.719677 -3.367733 1.2923055
37.730614 -2.9868391 1.2805275
37.674549 -2.7207336 1.2499468
37.68594 -2.3342786 1.2631102
37.671524 -1.8493614 1.2529559
37.677238 -1.7599897 1.3141913
37.653049 -1.413466 1.3150804
37.638901 -1.3728111 1.3127227
37.615131 -1.0718915 1.2833252
37.61665 -0.64389682 1.2645613
37.671883 0.61534715 1.270949
37.686913 1.82008 1.3719444
37.619873 2.1421297 1.283872
37.615192 2.3956757 1.2669115
37.609406 13.186512 1.3272239
37.73978 13.235715 1.3919632
37.776562 29.081118 1.3493233
37.631485 29.246729 1.3287089
37.706219 55.540886 1.3175542
37.687428 55.67981 1.2252308
37.687355 -6.5759211 1.4636925
37.669971 -5.8471866 1.5199583
37.671139 -5.6997986 1.5439683
37.602131 -4.4096022 1.4848024
37.680992 -3.8453326 1.5575712
37.752823 -3.6638303 1.4118757
37.670273 -3.3400555 1.536422
37.692184 -3.1005723 1.5200338
37.719971 -2.9487324 1.5308727
37.667786 -2.6195912 1.4760277
37.73275 -2.596797 1.5819159
37.656178 -2.2686071 1.5013468
37.650154 -2.1995509 1.4184361
37.614296 -1.6754898 1.5075612
37.647053 0.63455534 1.4530048
37.615471 0.95137823 1.4038767
37.713875 29.648218 1.4998882
37.681038 -7.7603655 1.6548785
37.678143 -7.14117 1.6972327
37.658051 -6.4461517 1.6221288
37.693447 -5.1904907 1.6818612
37.652771 -4.0833006 1.6290174
37.672657 -3.853982 1.6814525
37.690941 -3.4523156 1.6787795
37.706581 -3.2879558 1.6729579
37.654057 -2.9991705 1.6742504
37.658897 -2.5935783 1.6647516
37.613724 -1.6176484 1.629553
37.602821 -0.28846693 1.6921873
37.749123 29.106092 1.6782942
37.809704 1.5174979 0.18368201
37.915974 15.566451 0.024746597
37.85891 15.635954 0.13090804
37.947201 15.873079 0.19883695
37.820381 16.222111 0.10765813
37.881596 17.415297 0.11715177
37.872467 26.982639 0.16452852
37.807938 32.056015 0.15307042
37.934624 33.147186 0.14399856
37.837849 33.234364 0.145887
37.847519 -7.671452 0.30904865
37.875374 13.231652 0.23596624
37.939102 15.587564 0.27219135
37.906158 15.674233 0.22404318
37.943466 17.098206 0.21670173
37.81723 17.749409 0.26294598
37.836788 29.354172 0.29274625
37.904366 29.830635 0.25702897
37.822292 33.223618 0.21275166
37.851685 48.507809 0.28331119
37.832375 55.44442 0.23233864
37.986816 55.603664 0.3772727
37.941299 1.5461721 0.57000327
37.86718 17.122328 0.45624
37.805931 17.259695 0.51036364
37.841694 26.955254 0.56595659
37.945267 27.076895 0.52120322
37.821968 29.162239 0.59007591
37.900505 32.105469 0.54994094
37.984486 48.498386 0.44335222
37.803886 -7.714581 0.71998394
37.813286 13.284021 0.72229433
37.865402 15.688801 0.65141654
37.934643 17.231327 0.69173604
37.941204 27.014465 0.60854912
37.801796 29.806564 0.60659277
37.948883 31.950863 0.75914335
37.828949 33.307877 0.70432806
37.815395 33.411415 0.79556286
37.939011 34.924931 0.72564101
37.937061 35.090931 0.73190504
37.822052 48.628281 0.71678925
37.824516 55.65131 0.61922908
37.864841 13.258808 0.98701334
37.808037 29.180058 0.99554116
37.880848 29.384705 0.89765579
37.87896 33.306442 0.81866866
37.994171 33.494366 0.95932364
37.810474 34.725945 0.85604489
37.928223 34.867825 0.93305099
37.842022 48.514069 0.90381998
37.907948 48.747868 0.86592114
37.89756 48.884281 0.92950577
37.887901 49.276348 0.86176908
37.883083 49.449043 0.90729553
37.834015 49.687454 0.91253823
37.84787 -7.6400075 1.1261998
37.908413 -7.3945775 1.0768305
37.885162 1.5205388 1.0508512
37.920135 15.866473 1.0657666
37.810627 16.101727 1.0411913
37.875908 16.299229 1.046638
37.922092 16.622627 1.0800284
37.859203 26.956459 1.0377355
37.986572 29.393587 1.1807778
37.968414 29.850224 1.0702032
37.905853 48.710789 1.0127509
37.844864 49.084846 1.0227314
37.893383 49.236305 1.1551374
37.828094 -7.487659 1.2753913
37.817852 -3.2650414 1.2821127
37.834476 13.19685 1.3294845
37.805492 29.14831 1.3591717
37.841209 29.294617 1.3312263
37.974453 29.416746 1.3869983
37.844246 -7.6190181 1.5355674
37.928757 -7.4834819 1.4798181
37.872673 -6.9096875 1.4665923
37.912621 29.345396 1.587948
37.919388 29.854517 1.4545561
37.884342 55.761765 1.415664
37.801701 -3.795995 1.6078231
38.167831 15.85065 0.078710757
38.190582 17.064907 0.16211733
38.127296 17.321003 0.16519824
38.053497 33.242439 0.17629564
38.114388 48.473724 0.10934733
38.164742 17.159645 0.2775701
38.068192 17.739758 0.26056647
38.138271 26.912937 0.28410318
38.107582 29.356634 0.29120061
38.175354 55.480553 0.28203684
38.158531 55.714508 0.25605741
38.12326 13.114151 0.48507297
38.019794 15.64639 0.53128684
38.180424 17.009233 0.42226365
38.17717 17.293938 0.51960939
38.14043 26.987455 0.547405
38.1227 48.547169 0.56794465
38.173157 55.681736 0.58439147
38.047203 13.2651 0.76085764
38.154385 17.279613 0.68538409
38.125057 26.885277 0.61474991
38.060345 31.974033 0.75443292
38.156937 32.103195 0.68628377
38.07003 33.116501 0.7505734
38.105759 33.303162 0.65299046
38.119743 35.021065 0.72238088
38.080044 48.575581 0.76820529
38.126175 49.84716 0.61845404
38.162773 55.491848 0.67593324
38.148758 15.691443 0.85755169
38.182777 29.386139 0.82801092
38.151257 30.538208 0.86786157
38.11927 31.88529 0.85154545
38.112862 32.062855 0.97462845
38.119072 33.148598 0.82251358
38.095745 33.22525 0.80244809
38.091488 33.477028 0.95585155
38.056068 48.590729 0.82707834
38.155121 48.605324 0.89249301
38.08762 48.958199 0.90165728
38.074791 49.157707 0.90041888
38.085808 49.528996 0.89928937
38.130558 55.5172 0.92697304
38.147423 13.177389 1.1495676
38.07029 15.920282 1.1363961
38.085358 16.304886 1.1071579
38.025276 16.553024 1.050609
38.057213 16.770832 1.1181465
38.009144 16.836672 1.1890385
38.084736 34.865528 1.0089307
38.034027 -7.7875214 1.3728336
38.11805 13.233118 1.3179176
38.055393 16.227081 1.2962098
38.030205 16.591068 1.3009328
38.009117 16.607307 1.2986279
38.11554 16.914068 1.3215317
38.098785 29.300632 1.3848325
38.111256 29.336712 1.4522614
38.031109 55.628078 1.4479117
38.09507 29.086945 1.6878622
38.214622 15.688258 0.01562494
38.396969 15.911271 0.011982948
38.32589 16.097872 0.01725325
38.35648 16.241173 0.12385856
38.271614 16.878092 0.15292171
38.319363 17.09141 0.14308119
38.258705 17.246113 0.066216022
38.206421 15.705862 0.24718237
38.326492 17.1493 0.21579139
38.378098 17.752987 0.25795534
38.290932 48.514397 0.25675946
38.388939 15.681749 0.53972048
38.39613 15.959904 0.54473972
38.373306 17.115187 0.41885614
38.310783 29.331905 0.54831254
38.28046 13.284557 0.62524486
38.36293 17.334396 0.7362231
38.218338 29.846031 0.61538899
38.311913 34.948002 0.60625964
38.355438 55.51873 0.68612891
38.228931 13.305464 0.9214049
38.386177 29.190357 0.90158468
38.248199 29.840759 0.97431612
38.215912 32.097061 0.94436115
38.295189 48.644333 0.95820498
38.231369 55.752563 0.97029626
38.220264 29.42664 1.0583829
38.37928 34.211269 1.1695533
38.314102 34.70647 1.0674156
38.205254 15.969978 1.3123745
38.276138 29.149605 1.3603761
38.266331 29.26926 1.3352683
38.228436 55.540504 1.3945067
38.250702 55.636513 1.3905826
38.389584 29.158365 1.4345158
38.365021 55.539207 1.5056691
38.249168 55.552391 1.699564
38.444077 15.744719 0.18753976
38.41209 16.171114 0.174687
38.55098 17.26898 0.11344922
38.547272 15.754343 0.2608732
38.582417 17.169044 0.21184975
38.41193 17.232706 0.27543303
38.445015 55.571461 0.28195003
38.471153 33.327129 0.5387764
38.47752 48.578705 0.57298774
38.508141 48.847897 0.56800234
38.488754 55.647587 0.55252641
38.501781 15.766867 0.65471673
38.569626 13.30689 0.92210191
38.4091 29.456385 0.83318985
38.577576 13.185555 1.1639555
38.523457 15.922372 1.135097
38.577015 33.598888 1.1534752
38.48378 33.796066 1.1266733
38.401482 34.183979 1.1017258
38.409893 34.259834 1.0978717
38.425896 34.469673 1.1339364
38.508404 34.608448 1.0849626
38.444946 55.585545 1.1031402
38.493149 13.270823 1.3177819
38.41787 15.981102 1.3419774
38.512993 33.559196 1.2075269
38.493401 33.751488 1.2159417
38.505753 34.094841 1.2338889
38.581558 29.334084 1.418237
38.552902 55.719852 1.4352753
38.664864 15.752293 0.24629542
38.628288 55.428814 0.27673092
38.661007 55.669624 0.33004451
38.600361 15.663055 0.41988194
38.651424 17.281506 0.42108107
38.694729 17.273993 0.72154355
38.60762 48.608559 0.70009232
38.642555 55.505234 0.70055938
38.621082 55.707779 0.62479204
38.609028 29.455009 0.94034773
38.691727 48.621635 0.87062621
38.608356 55.533825 0.96273023
38.754898 29.424942 1.17591
38.625038 55.731598 1.061552
38.65435 13.218537 1.3706982
38.677975 29.140738 1.4202851
38.666061 55.554131 1.4326384
38.93811 55.761673 0.27556658
38.966988 17.291882 0.49619713
38.934883 48.549728 0.53121209
38.980583 17.354752 0.75767636
38.865685 55.643219 0.63138652
38.907497 55.578491 0.93511975
38.94458 55.709663 0.9501546
38.903465 13.223588 1.1343701
38.955585 29.44405 1.0973967
38.932365 13.327939 1.3159778
38.952171 55.791222 1.3988711
38.831787 13.363196 1.578127
38.914574 29.158854 1.5084949
38.930069 55.682858 1.6586616
39.006451 17.280111 0.25579461
39.118195 48.557068 0.24230929
39.059502 55.524254 0.28140381
39.013367 55.653999 0.43447202
39.14291 55.526981 0.72665161
39.10199 55.72451 0.63850951
39.085609 29.45846 0.99726164
39.112007 29.901356 1.0296673
39.100052 55.566429 1.0025108
39.195587 13.299582 1.2780635
39.153114 55.774303 1.3533511
39.061943 13.330799 1.493499
39.042229 29.44313 1.456286
39.088036 55.557037 1.4709864
39.125473 55.676483 1.4872904
39.368095 48.567822 0.17196351
39.395027 17.303638 0.27540162
39.334217 55.782562 0.28617641
39.331654 17.309887 0.45446956
39.290489 48.623844 0.48034424
39.207607 48.543736 0.60784781
39.340565 55.674896 0.64504629
39.35437 55.818439 0.93596619
39.23336 55.638939 1.3624394
39.318169 29.170309 1.565039
39.338303 29.411205 1.4781709
39.376144 55.786484 1.4224336
39.407887 17.446712 0.080966741
39.465378 55.441696 0.19711725
39.477741 17.250933 0.42076072
39.541344 48.683311 0.47469842
39.442947 55.677719 0.43881398
39.56916 55.558456 0.74926245
39.558403 55.748383 0.65160429
39.436565 17.206648 0.98384094
39.504276 55.578358 0.96830618
39.581535 17.107504 1.1409632
39.430603 29.499029 1.1314284
39.511383 29.910736 1.0386353
39.517849 55.623032 1.1913909
39.449593 55.557976 1.374449
39.507584 29.237877 1.5158247
39.507862 29.44256 1.51531
39.598763 55.591114 1.6454688
39.77169 17.452301 0.072345674
39.668098 55.791065 0.19150096
39.75042 48.595596 0.25138983
39.707836 55.591923 0.30958444
39.680107 55.617138 0.30888045
39.764053 48.644245 0.43561557
39.757191 55.677254 0.43969357
39.777931 17.33308 0.60847801
39.692398 17.681271 0.67629015
39.657913 55.552608 0.7538352
39.692734 17.247801 0.85477817
39.709049 29.86594 0.9863143
39.762398 55.721985 0.96230209
39.662804 16.990707 1.1569483
39.7393 17.338436 1.0056584
39.727188 55.672363 1.4026959
39.839203 17.395329 0.16752343
39.825768 34.879402 0.16844375
39.886826 55.69545 0.5556013
39.917534 55.571831 0.98030972
39.894081 55.605534 1.0120945
39.889656 29.466078 1.5119412
39.873444 55.75621 1.4164864
40.014755 17.320906 0.42122531
40.182281 55.766449 0.58003896
40.065094 17.320244 0.61215198
40.091774 17.724272 0.67180085
40.12067 55.575722 0.77846134
40.109646 17.26696 0.87962902
40.130436 29.504263 1.4545277
40.020096 55.610847 1.4104686
40.241806 17.389427 0.18488358
40.251015 17.407572 0.260142
40.219357 55.689697 0.26575688
40.303596 17.449274 0.43146101
40.360802 55.828979 0.48971766
40.247337 17.710316 0.67083776
40.256935 55.866356 0.97001529
40.295601 55.659359 1.019721
40.221394 55.66375 1.2508585
40.267227 55.820175 1.3340075
40.246887 29.517607 1.5325415
40.232021 55.678825 1.52978
40.220791 29.432976 1.6554074
40.49649 17.483982 0.11966946
40.482109 17.783836 0.04752633
40.486511 17.370846 0.46402359
40.493481 17.477135 0.57824033
40.594963 55.747589 0.57802999
40.588818 53.80444 0.60715634
40.550545 54.804268 0.60689944
40.577587 55.421875 0.70402336
40.59491 55.735577 0.98366028
40.598183 56.01096 0.9658705
40.595371 29.966591 1.3913811
40.542206 29.498795 1.5454204
40.566177 55.809357 1.5029668
40.778973 54.811401 0.035004966
40.790535 55.066757 0.073881611
40.786774 55.462669 0.019165598
40.72039 55.882736 0.0080728605
40.661846 55.4776 0.20193684
40.675404 55.730068 0.21889883
40.68911 55.889244 0.20263055
40.747871 17.094975 0.42431399
40.77153 17.233337 0.42308086
40.781281 55.703827 0.4657442
40.776493 55.838875 0.5063684
40.762115 47.727966 0.79290748
40.686047 54.254047 0.60909003
40.770405 55.844917 0.77595156
40.794609 55.088638 0.99018937
40.771667 55.483261 0.99621141
40.764851 29.932423 1.0393367
40.716419 55.918747 1.0015595
40.78384 55.027229 1.3917279
40.682465 55.904301 1.3472596
40.721405 29.512209 1.526211
40.61673 29.796227 1.4191315
40.7985 55.193077 1.4783871
40.771168 55.477749 1.4488254
40.730904 55.839417 1.4993629
40.932426 17.416737 0.17689452
40.951183 47.186485 0.14015082
40.935165 47.685509 0.12676869
40.863808 54.132648 0.053152837
40.934357 54.639633 0.18527724
40.975998 54.877056 0.13427305
40.990814 17.36195 0.20427866
40.96954 51.060989 0.30231872
40.952049 51.212814 0.36876613
40.98344 54.282158 0.31790417
40.981747 54.458511 0.34135976
40.889481 54.936512 0.25870085
40.919666 55.425327 0.31571934
40.930096 55.639984 0.33679286
40.953323 17.501942 0.43523443
40.977715 45.229435 0.59273028
40.96022 47.145569 0.4757666
40.948872 47.266865 0.55393481
40.927006 47.674809 0.48816296
40.957493 51.051414 0.53020024
40.938324 51.256966 0.44902205
40.981014 52.987587 0.46711534
40.979797 53.046661 0.57826555
40.963894 53.473881 0.51892495
40.965576 53.776917 0.43931332
40.932472 53.938507 0.52502823
40.915215 54.186298 0.51763427
40.91954 54.466305 0.45119905
40.891541 54.694077 0.53908098
40.871716 55.070255 0.53258979
40.850174 55.421028 0.52872241
40.832726 55.7313 0.50819844
40.84721 17.417561 0.61875355
40.914532 47.50581 0.73112303
40.936966 47.673153 0.69188619
40.957897 53.074871 0.68081033
40.931549 53.327065 0.73675132
40.970184 53.475796 0.68245554
40.920105 54.157356 0.68340755
40.907593 54.265869 0.61592448
40.88092 54.871914 0.68516344
40.889759 55.03257 0.76453876
40.836716 55.595013 0.68714982
40.991753 47.136127 0.81606066
40.971264 47.504311 0.99056387
40.962551 47.72065 0.8204025
40.97707 53.481762 0.99903506
40.878502 53.878334 0.97678137
40.87101 54.173954 0.98037678
40.979542 54.286461 0.97995102
40.991013 54.543976 0.8141731
40.896828 54.69759 0.99106991
40.976257 54.883377 0.97824717
40.949409 55.048206 0.98843718
40.91407 55.422108 0.99389905
40.912491 55.710575 0.89825398
40.991997 47.158081 1.0909526
40.983345 47.501007 1.0532045
40.953999 47.739693 1.067843
40.980614 53.783051 1.0505431
40.967888 53.991776 1.0049229
40.969208 54.059692 1.0098498
40.953297 54.479523 1.033463
40.924789 54.797722 1.0142429
40.922966 55.031052 1.0606499
40.861664 55.634605 1.0451357
40.998985 54.264698 1.2810867
40.893372 54.98468 1.3039656
40.922245 55.651726 1.3092279
40.842205 29.339527 1.5939307
40.860344 29.479343 1.5761199
40.962807 29.811829 1.446758
40.985226 46.739555 1.5995406
40.989979 46.948009 1.4908398
40.990749 47.057312 1.4824311
40.963326 47.240646 1.4939193
40.930275 47.708523 1.4929354
40.973373 53.487724 1.4564071
40.949825 53.945068 1.4989135
40.904213 54.172832 1.447214
40.941681 54.307232 1.4547634
40.931381 54.467178 1.5497124
40.884285 54.712879 1.4813536
40.909271 54.911465 1.4728189
40.876015 55.373093 1.4607453
40.868111 55.419994 1.5787884
40.821568 55.750153 1.5242631
40.955452 47.181377 1.6185063
40.932114 47.734444 1.6596863
40.925705 54.460896 1.6718433
40.897652 55.025414 1.6817362
40.977543 55.217499 1.6584494
40.882301 55.50383 1.6687142
41.14706 44.961967 0.046827927
41.150352 45.387791 0.16892171
41.026424 46.767639 0.16505674
41.013443 47.408062 0.16427633
41.110538 47.854317 0.18205652
41.150024 48.620338 0.19898748
41.113914 51.266136 0.15431514
41.106979 51.71228 0.15240464
41.088654 52.183472 0.15014669
41.027664 54.065918 0.13969269
41.059685 17.448118 0.25339678
41.126419 45.269741 0.29557264
41.068069 47.082108 0.24952088
41.021824 47.430122 0.28111058
41.168098 47.921551 0.28107512
41.140263 48.243793 0.21755345
41.152721 50.615082 0.30117837
41.087849 51.05307 0.3165845
41.02282 51.263329 0.328087
41.130371 51.406017 0.30566043
41.105091 51.712204 0.28835189
41.098366 52.126167 0.31678101
41.082333 52.218521 0.32619822
41.046356 52.664616 0.26113081
41.054054 53.046875 0.30060554
41.017216 53.49675 0.2920419
41.005875 53.87426 0.28714508
41.168594 45.154556 0.46437854
41.135681 45.386372 0.54807645
41.172737 45.605118 0.49111354
41.047897 46.990711 0.42855859
41.051323 47.080853 0.52563155
41.027283 47.535702 0.49759021
41.009239 47.600094 0.45625949
41.132626 48.073135 0.5575546
41.132851 48.634693 0.54970694
41.098469 49.214954 0.54014027
41.1022 50.298317 0.52356791
41.111618 50.500893 0.44644907
41.093369 50.638214 0.57725412
41.088261 50.95784 0.45308775
41.004814 51.46656 0.51687086
41.046108 51.648884 0.46039563
41.037262 51.868965 0.57999641
41.03014 52.072514 0.45095688
41.02919 52.338562 0.44114894
41.007019 52.49514 0.51750207
41.095753 45.160633 0.66408479
41.11554 45.465912 0.71510077
41.196075 45.614975 0.6820457
41.196526 46.125908 0.68847328
41.18177 46.545822 0.71342075
41.012447 47.084812 0.68988818
41.068787 47.840179 0.61496103
41.168129 48.27335 0.61682528
41.159878 48.62542 0.61793315
41.146748 48.977604 0.61291969
41.052288 51.689964 0.68004537
41.017513 52.289486 0.64907908
41.146774 44.994144 0.83445507
41.18119 45.352551 0.8195672
41.13282 46.05265 0.91662389
41.04628 46.920361 0.86858469
41.048969 47.247581 0.86142796
41.022251 47.488857 0.85472751
41.129112 50.134602 0.98816699
41.097374 50.809254 0.98709822
41.116245 51.109337 0.94519424
41.120049 51.508301 0.95193249
41.062515 51.653008 0.98835438
41.049065 52.124851 0.99050885
41.111786 52.247299 0.90199894
41.093204 52.435242 0.98971117
41.073742 52.678146 0.99307531
41.058815 53.052704 0.99420285
41.094467 53.250851 0.98409593
41.033279 53.496475 0.97685784
41.056023 53.825737 0.98195934
41.025558 54.241684 0.98044944
41.171028 45.140907 1.0235577
41.145401 45.256573 1.0475863
41.190575 45.533272 1.0657771
41.131569 46.680916 1.1508982
41.008316 46.944649 1.0605596
41.06041 47.095165 1.0251305
41.005627 47.253963 1.0251641
41.103546 47.468567 1.011705
41.09272 47.772491 1.0463982
41.192001 47.870125 1.115836
41.189701 48.147972 1.0805795
41.15501 48.657471 1.0354624
41.14357 49.027565 1.0375237
41.127266 49.452248 1.111042
41.138939 49.774918 1.0431774
41.148148 50.108627 1.0284697
41.11758 50.502918 1.0449132
41.12801 50.660439 1.016011
41.0868 51.170258 1.0432727
41.084412 51.480343 1.0436631
41.09063 51.895241 1.0229909
41.054649 52.344837 1.0449338
41.023758 53.007465 1.0469657
41.00956 53.449081 1.0493749
41.002487 53.91111 1.0006567
41.166183 30.006998 1.324344
41.130768 46.590858 1.3272698
41.149239 46.657745 1.3344116
41.064781 46.998375 1.3088695
41.10218 47.06937 1.3709953
41.066628 47.524635 1.3467913
41.081932 47.69878 1.2964629
41.127037 51.252605 1.2976356
41.03067 29.556129 1.5696239
41.134476 45.190617 1.5409341
41.12545 45.251461 1.4715555
41.041832 46.585506 1.5377313
41.098312 46.717827 1.4659468
41.004356 46.960308 1.4491105
41.184338 47.197109 1.5065054
41.018612 47.204815 1.4590702
41.001198 47.481754 1.4227974
41.107742 47.833862 1.5157242
41.164505 48.047447 1.5281618
41.149246 48.323265 1.4711797
41.149879 48.673443 1.499418
41.136589 48.859871 1.5607394
41.157394 49.079132 1.5056527
41.096111 49.274376 1.5602783
41.133408 49.443581 1.5235946
